# .PCD v.7 - Point Cloud Data file format
VERSION .7
FIELDS x y z
SIZE 4 4 4
TYPE F F F
COUNT 1 1 1
WIDTH 1493
HEIGHT 1
VIEWPOINT 0 0 0 1 0 0 0
POINTS 1493
DATA ascii
-0.8185091 0.3511833 -0.2194776
-0.8184868 0.3511952 -0.2194766
-0.8186147 0.351126 -0.2194304
-0.8185787 0.3511741 -0.2194313
-0.8185078 0.351186 -0.2194747
-0.8185861 0.3511729 -0.2194283
-0.8184617 0.3512295 -0.2194336
-0.8184613 0.3512054 -0.2194989
-0.8184652 0.3512215 -0.2195102
-0.8184525 0.3512007 -0.2195036
-0.8184363 0.3512087 -0.2195069
-0.8184305 0.3512278 -0.2194916
-0.8184527 0.3512085 -0.2195074
-0.8184767 0.3512155 -0.2195219
-0.8184791 0.3511871 -0.2194898
-0.8184475 0.3512169 -0.2195116
-0.8184888 0.3512169 -0.2195035
-0.8184687 0.3511949 -0.2195129
-0.8183921 0.3511959 -0.2195231
-0.8184764 0.3512246 -0.2195092
-0.8185486 0.3511912 -0.2194459
-0.8185439 0.3512029 -0.2194237
-0.8185288 0.3512025 -0.2194791
-0.8184913 0.3511888 -0.2194824
-0.8185192 0.3511963 -0.2194451
-0.8185319 0.351193 -0.2194497
-0.8185219 0.3511966 -0.2194442
-0.8184665 0.3512309 -0.2194309
-0.8183622 0.3512177 -0.2194899
-0.8184504 0.3511933 -0.2194918
-0.818484 0.351209 -0.2195189
-0.8184363 0.3512087 -0.2195071
-0.8184544 0.3512274 -0.2194373
-0.8184441 0.3512019 -0.2195023
-0.8183656 0.3512203 -0.2194872
-0.8183669 0.351221 -0.2194879
-0.8184904 0.3512113 -0.2194983
-0.818498 0.3512003 -0.2194902
-0.8185993 0.3511259 -0.2192856
-0.8185204 0.3511935 -0.2194774
-0.8184425 0.3512101 -0.2194697
-0.8184379 0.3512128 -0.2195191
-0.818357 0.3512051 -0.2195023
-0.8183996 0.3511767 -0.2195046
-0.8183623 0.3512078 -0.2195008
-0.8184612 0.3512156 -0.2195296
-0.8184299 0.3512277 -0.2194921
-0.8184215 0.3512172 -0.219512
-0.8184996 0.3511921 -0.2194836
-0.8188415 0.3510583 -0.2192268
-0.8186517 0.3511519 -0.2194319
-0.8187719 0.3510768 -0.2193397
-0.8184434 0.3511979 -0.2195183
-0.8184219 0.3512005 -0.2195224
-0.8184747 0.3512154 -0.2195221
-0.8184626 0.3512008 -0.2195175
-0.8184236 0.3512179 -0.2195118
-0.8183663 0.3512099 -0.2194997
-0.8183653 0.3512093 -0.2195
-0.8184348 0.3512103 -0.2195164
-0.8184102 0.3512033 -0.2195216
-0.8184492 0.3512194 -0.2195122
-0.8184919 0.3511928 -0.2194874
-0.8184772 0.3512051 -0.2195006
-0.8185151 0.3512191 -0.2194352
-0.8185147 0.3511661 -0.2194973
-0.8185113 0.3511566 -0.2194949
-0.8184975 0.3511799 -0.2195064
-0.8184987 0.3511859 -0.2194766
-0.8185436 0.351156 -0.2194784
-0.8184952 0.3511673 -0.2194973
-0.8185255 0.3511923 -0.2195047
-0.8184363 0.3511779 -0.2195071
-0.8184331 0.3512256 -0.21949
-0.8184842 0.3511643 -0.2194909
-0.8184535 0.351214 -0.2195046
-0.8184397 0.3512383 -0.2194669
-0.8185216 0.3511992 -0.2194811
-0.8184353 0.3512363 -0.2194685
-0.8184831 0.351178 -0.2195033
-0.8184312 0.3512018 -0.2194821
-0.8183613 0.3512158 -0.2194828
-0.8184274 0.3512151 -0.2194875
-0.8184658 0.3512053 -0.2194991
-0.8184911 0.3511914 -0.2195087
-0.8184378 0.3511924 -0.2194966
-0.8184824 0.3511771 -0.2195036
-0.8184869 0.3511931 -0.2194986
-0.8184812 0.351195 -0.2194884
-0.8184475 0.3512185 -0.2194604
-0.8184718 0.3512117 -0.2195048
-0.818525 0.3511984 -0.2194475
-0.8186157 0.3511629 -0.2194179
-0.8185005 0.3511885 -0.2194748
-0.8183699 0.3512228 -0.2194869
-0.8183627 0.3512129 -0.2194926
-0.8183708 0.3512236 -0.2194866
-0.8183617 0.3512177 -0.2194901
-0.8183495 0.3512011 -0.219504
-0.8184881 0.3512188 -0.2195221
-0.8184772 0.3512197 -0.2195164
-0.8183628 0.3512166 -0.2194822
-0.8184467 0.3512183 -0.2195074
-0.81844 0.351222 -0.2195133
-0.8184602 0.3511962 -0.2194925
-0.81846 0.351229 -0.2194319
-0.8184372 0.3512057 -0.2194768
-0.818436 0.3511951 -0.2194948
-0.8184432 0.3512267 -0.2194731
-0.8184763 0.3512071 -0.2194975
-0.8184384 0.3512384 -0.2194674
-0.8184747 0.3512212 -0.2195052
-0.8184967 0.3511673 -0.2194965
-0.8185281 0.3511627 -0.2194875
-0.8185057 0.3511625 -0.2194903
-0.8184593 0.3512105 -0.2195221
-0.818428 0.3512231 -0.2194959
-0.8184784 0.3512211 -0.2195081
-0.8184574 0.3512177 -0.2195212
-0.8185166 0.3511861 -0.2194784
-0.8185093 0.3512174 -0.2194369
-0.8184819 0.3512057 -0.2194997
-0.8185251 0.3511975 -0.2194614
-0.8184232 0.3512179 -0.2195132
-0.8184847 0.3511818 -0.2194825
-0.8185321 0.3511938 -0.2194524
-0.8184918 0.3512146 -0.2194553
-0.8185345 0.3512004 -0.2194329
-0.8184369 0.3512357 -0.2194813
-0.8184504 0.3512355 -0.2194715
-0.8184232 0.3512189 -0.2194769
-0.8184086 0.3512135 -0.2194818
-0.8183551 0.351204 -0.219503
-0.8183621 0.3512074 -0.2195012
-0.818472 0.3511947 -0.219509
-0.8184901 0.3512178 -0.2194466
-0.818484 0.3511963 -0.2195117
-0.8184277 0.3512226 -0.2194953
-0.818478 0.3512205 -0.2195076
-0.8184786 0.3512085 -0.2194999
-0.818436 0.3512227 -0.2195111
-0.81844 0.351214 -0.2194682
-0.8185198 0.3511912 -0.2195045
-0.8184466 0.3512346 -0.2194795
-0.8184395 0.3512192 -0.2194736
-0.8184403 0.3512223 -0.2194416
-0.8184876 0.3511938 -0.219487
-0.8185121 0.3511674 -0.219494
-0.8185226 0.3512028 -0.2194397
-0.8185042 0.3511821 -0.2194784
-0.8185148 0.351189 -0.2194792
-0.8184567 0.3512213 -0.2194483
-0.8185589 0.3511952 -0.2194187
-0.81845 0.3512152 -0.2194668
-0.8184345 0.3512227 -0.2195118
-0.8184323 0.3512284 -0.2194909
-0.8185236 0.3511836 -0.2194743
-0.8184406 0.3511733 -0.2195096
-0.8185676 0.3511983 -0.2194194
-0.8184938 0.3511916 -0.2194843
-0.8185 0.3512084 -0.2194832
-0.8185028 0.3511989 -0.219485
-0.8184455 0.3512172 -0.2194453
-0.8184782 0.3511997 -0.2194922
-0.8185233 0.3511969 -0.2194435
-0.8184358 0.3512351 -0.2194801
-0.8184385 0.3512364 -0.2194794
-0.8184342 0.3512124 -0.2194606
-0.8183135 0.3511672 -0.2195191
-0.8186162 0.3511035 -0.2193635
-0.8185657 0.3511017 -0.2194438
-0.8185067 0.3511097 -0.2194689
-0.8185743 0.3510994 -0.2194411
-0.8183445 0.3511983 -0.219506
-0.8184291 0.3512318 -0.2194836
-0.8184406 0.3512312 -0.2194749
-0.8185266 0.3511958 -0.219443
-0.818455 0.3512183 -0.2194353
-0.8184595 0.3511879 -0.2194787
-0.8184537 0.3511946 -0.2194997
-0.8184368 0.3512204 -0.2194856
-0.8187132 0.3511241 -0.2193526
-0.8184184 0.351216 -0.2194733
-0.8184326 0.3512356 -0.219468
-0.8184447 0.351223 -0.2194424
-0.8184316 0.3512218 -0.2194659
-0.8185024 0.3511236 -0.219415
-0.8184329 0.3512342 -0.2194825
-0.8184418 0.3512221 -0.2194833
-0.8184875 0.3512267 -0.2195206
-0.8186286 0.3510961 -0.219409
-0.8185996 0.3511115 -0.2194269
-0.8185178 0.3511066 -0.2194244
-0.8185631 0.3510946 -0.2194607
-0.8184274 0.3512323 -0.2194563
-0.8185377 0.3511023 -0.2194157
-0.8185999 0.351102 -0.2194191
-0.8185632 0.3511394 -0.2194491
-0.818511 0.3511195 -0.2194016
-0.8186129 0.351105 -0.219365
-0.8183188 0.3511699 -0.2195185
-0.8185907 0.3511131 -0.2194297
-0.8183998 0.3511952 -0.219487
-0.8184277 0.3512321 -0.219456
-0.8185671 0.3510937 -0.2194597
-0.8186627 0.3511166 -0.2193699
-0.8184251 0.3512196 -0.219479
-0.8186796 0.3510937 -0.2193744
-0.8187013 0.3510819 -0.2193832
-0.8186467 0.3511031 -0.2194146
-0.8185887 0.3510868 -0.2194466
-0.8187151 0.3510878 -0.219317
-0.8186212 0.3511074 -0.2194232
-0.8185757 0.3511472 -0.2194504
-0.8186144 0.3510886 -0.2194294
-0.8185972 0.3510985 -0.2193868
-0.8185825 0.3511019 -0.2193939
-0.8184322 0.3512284 -0.2194836
-0.8183023 0.3511621 -0.2195209
-0.8185293 0.351107 -0.2194605
-0.8184134 0.3512263 -0.2194648
-0.8184293 0.3512354 -0.2194669
-0.8184345 0.3512203 -0.2195138
-0.8184275 0.3512335 -0.2194698
-0.8184375 0.3512127 -0.2195048
-0.8184299 0.3512346 -0.2194689
-0.818427 0.3512341 -0.2194697
-0.8183396 0.3511953 -0.2195075
-0.8185287 0.3511014 -0.2194184
-0.8184369 0.3512215 -0.2194454
-0.8184381 0.3512218 -0.2194451
-0.8185035 0.3511862 -0.2195087
-0.818473 0.3511982 -0.2194898
-0.8184772 0.3511989 -0.219489
-0.8184689 0.3511513 -0.2194911
-0.8185118 0.3512278 -0.2194499
-0.8184864 0.3512235 -0.2195291
-0.8185228 0.3511911 -0.2194602
-0.8185216 0.3511945 -0.2194594
-0.818757 0.3511091 -0.2193394
-0.8189337 0.3510431 -0.2192737
-0.8187981 0.3510871 -0.2193165
-0.818532 0.3511953 -0.2194537
-0.87067 0.3333881 -0.08441073
-0.9263363 0.3387209 -0.02156856
-0.9443072 0.3394424 -0.02060639
-0.8939452 0.3073509 -0.08369417
-0.9190865 0.3061053 -0.1043214
-0.8651895 0.3300732 -0.08143942
-0.9793105 0.3556129 0.02610573
-0.9396766 0.3445703 0.005743873
-0.8816816 0.3503792 -0.07299327
-0.9402888 0.344909 0.008973925
-0.9250609 0.3275841 -0.02927058
-0.8907772 0.3071868 -0.08846458
-0.9300838 0.3162852 -0.08333635
-0.929254 0.319616 -0.0677516
-0.9582537 0.3393981 -0.01339022
-0.971419 0.3750396 0.09517248
-0.9157474 0.3367313 -0.01491852
-0.9287335 0.328856 -0.01057777
-0.9342764 0.3170174 -0.06468888
-0.9080119 0.3088378 -0.08643404
-0.9413553 0.3370041 -0.01415333
-0.9273769 0.3092553 -0.1019797
-0.9315152 0.330187 0.008016332
-0.917323 0.3053662 -0.1151502
-0.9340472 0.337522 -0.00903533
-0.9320111 0.3214058 -0.04823587
-0.8906554 0.3073221 -0.08809202
-0.9227046 0.3232656 -0.03717015
-0.9124467 0.3370399 -0.06906284
-0.8983195 0.335835 -0.07750134
-0.9155217 0.3368618 -0.01314806
-0.9631113 0.3497071 0.006512044
-0.9246432 0.3072666 -0.102672
-0.9187245 0.3061253 -0.1057811
-0.8798841 0.3318897 -0.07885633
-0.8863899 0.3478689 -0.07249559
-0.9769254 0.3690802 0.04741465
-0.9262885 0.3078223 -0.1053906
-0.8899741 0.3095239 -0.08034794
-0.9204777 0.3214125 -0.03199438
-0.8990048 0.3225648 -0.09384239
-0.8754979 0.3232831 -0.08287627
-0.8872858 0.3233751 -0.09307469
-0.8767813 0.3204038 -0.08442627
-0.8795597 0.3351686 -0.07835242
-0.920709 0.3208792 -0.03315093
-0.8860379 0.3337997 -0.08064122
-0.8924748 0.3270117 -0.08876303
-0.8751784 0.328777 -0.08257513
-0.9272854 0.308417 -0.1024562
-0.9079829 0.3169035 -0.09959552
-0.9393395 0.3290625 -0.004496126
-0.8917709 0.3168805 -0.08107247
-0.9314204 0.3156818 -0.09129284
-0.9402223 0.3228403 -0.06130957
-0.9186267 0.3041437 -0.1064067
-0.8996528 0.3288642 -0.1035893
-0.9271352 0.3092989 -0.1026756
-0.886262 0.3240786 -0.08657262
-0.8977584 0.3367232 -0.08254202
-0.9178867 0.3174079 -0.06006916
-0.8910874 0.3076131 -0.09276235
-0.9087358 0.3072035 -0.1010426
-0.929471 0.3208469 -0.05665436
-0.9085799 0.3065476 -0.09710419
-0.8904778 0.3097582 -0.08394843
-0.9203587 0.3221625 -0.0357709
-0.9028221 0.3258483 -0.09457073
-0.8981167 0.323231 -0.09091013
-0.9302856 0.3179668 -0.06809247
-0.8751363 0.3260869 -0.07986916
-0.9093204 0.3101163 -0.09714036
-0.921904 0.3089426 -0.0991943
-0.8898605 0.3295132 -0.1000276
-0.8961977 0.3150498 -0.1076232
-0.8897126 0.3219388 -0.1032602
-0.8997858 0.3309229 -0.1045783
-0.8997243 0.3286549 -0.1055243
-0.9256717 0.3080087 -0.1075856
-0.9083132 0.3157452 -0.1041581
-0.8847864 0.3241922 -0.08388771
-0.9003733 0.329841 -0.1092221
-0.8920394 0.30833 -0.09780647
-0.9002094 0.3244915 -0.0982671
-0.8999847 0.3304145 -0.1071753
-0.8944955 0.3415956 -0.09574127
-0.9245064 0.3082345 -0.1110344
-0.8869315 0.3324241 -0.08658873
-0.9068611 0.3203169 -0.09508613
-0.9011041 0.3229807 -0.1071735
-0.8852078 0.3236345 -0.08648503
-0.8928725 0.3103097 -0.0977281
-0.9072417 0.3209101 -0.08803541
-0.8990074 0.3320525 -0.09806397
-0.9261464 0.3078401 -0.1054889
-0.8915419 0.3291861 -0.08968102
-0.8932182 0.3247841 -0.09767882
-0.9221915 0.3087938 -0.1001574
-0.8996763 0.3303273 -0.1066436
-0.9585552 0.3393766 -0.01300637
-0.9361494 0.3165537 -0.06027778
-0.9359682 0.3245213 -0.05426497
-0.9212481 0.323066 -0.04324783
-0.9392522 0.3587075 -0.03504904
-0.9199255 0.321716 -0.03691994
-0.9346518 0.3381484 -0.005842694
-0.9512439 0.3378198 -0.01377915
-0.9400846 0.3584433 -0.03400915
-0.923947 0.3074421 -0.1018727
-0.9075184 0.3220775 -0.07333155
-0.950286 0.3433568 0.002750441
-0.8941951 0.3057969 -0.08811275
-0.9273603 0.3092347 -0.1020351
-0.9169903 0.3056475 -0.1067814
-0.9233461 0.30768 -0.1064429
-0.8926981 0.3277352 -0.09614875
-0.9315361 0.3096461 -0.09995339
-0.9054591 0.3365542 -0.09682444
-0.9049212 0.3217616 -0.1065605
-0.9414412 0.3185433 -0.07948808
-0.9023504 0.3259329 -0.09757312
-0.9187715 0.3060993 -0.1045063
-0.9052739 0.3219436 -0.1065744
-0.8998523 0.3286909 -0.1039071
-0.900798 0.3233176 -0.1063975
-0.9399215 0.3220222 -0.07803328
-0.9054301 0.3220756 -0.1069331
-0.9223083 0.3180318 -0.02702796
-0.8959002 0.3150027 -0.1054761
-0.9068376 0.3204361 -0.0960738
-0.9206131 0.3174925 -0.04160819
-0.9240755 0.3050725 -0.1165614
-0.9365146 0.3161218 -0.08198508
-0.9081722 0.3163181 -0.0988405
-0.9336078 0.3154187 -0.08579587
-0.9349623 0.3166167 -0.062182
-0.9534464 0.3467307 0.004824599
-0.9194348 0.3462651 -0.02444444
-1.038903 0.4056075 0.1171504
-1.025568 0.3979709 0.1039257
-0.9440774 0.3489663 0.0268617
-0.9547979 0.3445644 0.007773012
-0.9272256 0.3062849 -0.110585
-0.9333843 0.3316101 0.02110828
-0.9427531 0.3215345 -0.0672195
-0.9477293 0.3288369 -0.04352584
-0.9369207 0.326658 -0.0481158
-0.9432845 0.3307551 -0.04073147
-0.9273403 0.3084733 -0.1021299
-0.9407446 0.3230528 -0.058762
-0.8996338 0.328808 -0.104943
-0.9067594 0.3202465 -0.09759562
-0.9274215 0.3061285 -0.1093309
-0.9309105 0.3056929 -0.1137059
-0.9269341 0.3031112 -0.1112611
-0.9364638 0.3207632 -0.0683984
-0.9360908 0.3162551 -0.08430564
-0.9254625 0.3043074 -0.1085485
-0.9162717 0.3416438 0.007176331
-0.9268767 0.3030583 -0.1098745
-0.9556743 0.3306133 -0.05384974
-0.936189 0.3162722 -0.08366681
-0.9221625 0.32332 -0.0393209
-0.944261 0.3236632 -0.06409836
-0.9295031 0.3178153 -0.06928691
-0.9707097 0.3767055 0.09817324
-0.9050431 0.3218919 -0.1068377
-0.9371222 0.325686 -0.04798793
-0.9051632 0.3217267 -0.107414
-0.9317722 0.3097703 -0.1001303
-0.9556469 0.3305057 -0.05479075
-0.926247 0.304324 -0.1098825
-0.9092544 0.3276543 -0.106257
-0.9020181 0.3242138 -0.108582
-0.9483026 0.3283179 -0.03990914
-0.9105214 0.3073711 -0.1051539
-0.9542874 0.3449061 0.00857126
-0.9041389 0.3224531 -0.1159926
-0.9367436 0.3075516 -0.1137077
-0.9090669 0.3275414 -0.1065956
-0.9360787 0.3069848 -0.1117966
-0.9375021 0.3075422 -0.1121284
-0.9080296 0.3265306 -0.1091595
-0.9096369 0.3019243 -0.1098568
-0.9365317 0.3078553 -0.1150366
-0.9323972 0.3069505 -0.1148182
-0.9325833 0.3069812 -0.1146681
-0.9357699 0.3082241 -0.1110452
-0.91717 0.3060712 -0.1050669
-0.9267184 0.3047354 -0.1093844
-0.9023795 0.3237968 -0.1099934
-0.9004422 0.3277606 -0.1093612
-0.9308753 0.3057247 -0.1139701
-0.9090988 0.2991753 -0.1074695
-0.9000306 0.3284678 -0.1121466
-0.9278897 0.3059066 -0.1145597
-0.9262153 0.3046598 -0.1119292
-0.9300724 0.3104032 -0.09748098
-0.9055995 0.3354871 -0.1000651
-0.9054964 0.3361332 -0.0981174
-0.9299051 0.3285687 -0.008165298
-0.9426607 0.3217002 -0.06978456
-0.9423999 0.3216552 -0.0705492
-0.9193957 0.3054124 -0.1046469
-0.9326257 0.3066726 -0.1132444
-0.9392912 0.3181195 -0.07980803
-0.9515443 0.3297598 -0.04826251
-0.9464608 0.3178201 -0.08372998
-0.9249787 0.3207372 -0.0419259
-0.9280528 0.3057732 -0.1124488
-0.9708 0.3761825 0.09682759
-0.9055765 0.3360488 -0.09853859
-0.9002216 0.3281115 -0.1073861
-0.9335678 0.3145959 -0.05370397
-0.9314867 0.3143572 -0.06263867
-0.9584857 0.3394632 -0.0128018
-0.9139625 0.3306736 -0.1047975
-0.9087394 0.3074838 -0.1038524
-0.9190239 0.3040796 -0.1083838
-0.9081103 0.3157984 -0.09992982
-0.9512056 0.3258858 -0.06457875
-0.9454366 0.3178571 -0.08597498
-0.9423307 0.3340257 -0.005819024
-0.9002526 0.3281804 -0.1129232
-0.9271757 0.3093128 -0.1018815
-0.9271814 0.3050537 -0.1107059
-0.9302664 0.3058752 -0.1151458
-0.9546221 0.3210433 -0.09001853
-0.9007222 0.327925 -0.1142662
-0.9388607 0.3124034 -0.1095042
-0.9408211 0.3123845 -0.1007377
-0.9342989 0.3100723 -0.1076418
-0.9335057 0.3088163 -0.1173572
-0.9192826 0.3033039 -0.1081651
-0.9343235 0.3153664 -0.06275404
-0.9117178 0.3224213 -0.06270098
-0.9105922 0.3094212 -0.1038551
-0.956143 0.3274355 -0.07196847
-0.9495651 0.3212855 -0.0854689
-0.9186157 0.3174001 -0.06471699
-0.9550263 0.3286959 -0.0628176
-0.9368879 0.3084573 -0.1064735
-0.9303306 0.3057008 -0.1135602
-0.9269318 0.3092295 -0.1027782
-0.9549628 0.3210928 -0.08916158
-0.9414585 0.3186195 -0.08003816
-0.93446 0.3202382 -0.06649491
-0.9338828 0.3200949 -0.06920587
-0.9061037 0.320509 -0.1148607
-0.9080814 0.3180723 -0.104575
-0.9088426 0.2986034 -0.1047192
-0.9080268 0.3264212 -0.1098957
-0.938871 0.3124667 -0.1095904
-0.9365553 0.3084927 -0.1089453
-0.9225299 0.3051091 -0.1088704
-0.9243456 0.3054997 -0.1083362
-0.9355915 0.3082678 -0.1190001
-0.9079452 0.318224 -0.1028592
-0.9105008 0.3092499 -0.1021133
-0.9416091 0.3118717 -0.1235408
-0.9097456 0.3236555 -0.1153425
-0.9602585 0.305605 -0.08715593
-0.9509715 0.3443323 0.006368909
-0.9261019 0.3050034 -0.1121938
-0.9438717 0.3236757 -0.06507349
-0.9258308 0.3006618 -0.111586
-0.9511318 0.3258981 -0.06518724
-0.9325048 0.3100556 -0.102495
-0.9595584 0.3311653 -0.06210795
-0.9399417 0.3236685 -0.06256177
-0.9454712 0.3174758 -0.08570764
-0.950358 0.3215219 -0.08296972
-0.9191145 0.3171993 -0.07382865
-0.962364 0.3347086 -0.05707738
-0.959561 0.3312791 -0.06282178
-0.9176828 0.316718 -0.07166253
-0.9488983 0.3207228 -0.09382469
-0.9484767 0.3206871 -0.09499119
-0.9356107 0.310019 -0.1153251
-0.9528272 0.3197234 -0.09555597
-0.9835638 0.3264771 -0.04959422
-0.9505311 0.321522 -0.08326247
-0.947142 0.32008 -0.0979451
-0.9567668 0.303296 -0.09706587
-0.9081815 0.3172386 -0.1044377
-0.9282575 0.3059274 -0.1111242
-0.9407415 0.3205462 -0.06934686
-0.92884 0.3042116 -0.110189
-0.9076687 0.326874 -0.1078261
-0.9554763 0.3241547 -0.09741267
-0.953607 0.32323 -0.09085239
-0.9177755 0.3262332 -0.05140444
-0.9472392 0.3185197 -0.09056251
-0.9364881 0.3077289 -0.1143478
-0.9588096 0.3207837 -0.0837882
-0.9616076 0.331322 -0.05181621
-0.9582829 0.3204712 -0.08406425
-0.9111347 0.3241245 -0.04286527
-0.9559886 0.3309141 -0.05263643
-0.9355253 0.3086439 -0.1126611
-0.9226622 0.3049088 -0.1072339
-0.9225119 0.3051454 -0.1087104
-0.9182083 0.3473327 0.0391647
-0.9182425 0.3429292 0.01377292
-0.9108865 0.3243285 -0.04440751
-0.9459916 0.3518976 0.03474421
-0.9276886 0.3354229 -0.0806367
-0.9190209 0.3053104 -0.1053433
-0.9561341 0.3244439 -0.09600174
-0.9177049 0.3266764 -0.04726824
-0.9326333 0.3073066 -0.1145305
-0.9268338 0.3031168 -0.1093077
-0.9403953 0.3220357 -0.05758404
-0.9327098 0.3072259 -0.1141753
-0.9545578 0.3245616 -0.08613819
-0.9582393 0.3265869 -0.08915187
-0.9566999 0.3311083 -0.05077138
-0.9594665 0.3268372 -0.08641677
-0.9571095 0.324574 -0.09451696
-0.9173407 0.3274475 -0.03966639
-0.9597036 0.3253992 -0.08937323
-0.9090866 0.307817 -0.10838
-0.9246473 0.3052351 -0.1068502
-0.9091759 0.3250284 -0.1084618
-0.9086649 0.3156599 -0.1080154
-0.9325249 0.3107788 -0.09757762
-0.9559736 0.3272706 -0.07257377
-0.9323772 0.3307568 0.002041199
-0.9319778 0.3296787 -0.00276128
-0.9082884 0.3170881 -0.1060559
-0.9177942 0.3417591 0.002240438
-0.9588549 0.3307801 -0.06479892
-0.9126412 0.3216781 -0.0736236
-0.95485 0.3210005 -0.08876065
-0.9318869 0.3074415 -0.1171194
-0.9716857 0.3757041 0.09631402
-0.9634905 0.3441929 0.0001943203
-0.9620399 0.3436737 0.004374453
-0.9528174 0.3266062 -0.06486069
-0.9528489 0.3292579 -0.04490044
-0.9546095 0.3209687 -0.08935353
-0.9252301 0.3277462 -0.03120479
-0.9190059 0.3174057 -0.07015889
-0.9523461 0.3296313 -0.04539929
-0.9350629 0.3152127 -0.08043223
-0.9361847 0.3163419 -0.08387172
-0.919004 0.3173774 -0.06824932
-0.9410781 0.3312664 -0.04028675
-0.9247308 0.3189037 -0.06969764
-0.9483311 0.3186758 -0.08653839
-0.9368476 0.306966 -0.1101427
-0.9635481 0.3453378 -0.000242794
-0.9325224 0.335642 -0.02430605
-0.9202711 0.3224486 -0.05194061
-0.9317541 0.3316256 -0.008387604
-0.9503074 0.3214867 -0.08483725
-0.9314376 0.3096084 -0.1000872
-0.9174309 0.3044755 -0.1081599
-0.9410372 0.3207922 -0.07361411
-0.9420246 0.3394684 -0.01195741
-0.9290279 0.3109575 -0.09103295
-0.9263971 0.3073494 -0.1011974
-0.9510949 0.3259433 -0.06695682
-0.9575233 0.3265762 -0.089709
-0.9091753 0.3271388 -0.108464
-0.9561771 0.3249556 -0.08867639
-0.9657144 0.3364563 -0.04874506
-0.9624849 0.3288981 -0.08711625
-0.9530461 0.3253274 -0.07378841
-0.968825 0.3610793 0.07977931
-0.924172 0.3081572 -0.1036933
-0.9531257 0.3113191 -0.09719831
-0.9289771 0.3109905 -0.09117555
-0.9274294 0.3091893 -0.100261
-0.9100607 0.3235963 -0.05678743
-0.9422472 0.3125637 -0.104649
-0.9583016 0.3308721 -0.06770165
-0.9466143 0.3184026 -0.09227555
-0.9516517 0.3228787 -0.09217748
-0.9427005 0.3214118 -0.06942096
-0.9552495 0.3162002 -0.08103779
-0.9593546 0.327324 -0.08608657
-0.9554384 0.3498569 0.03623804
-0.9476484 0.3237973 -0.08857856
-0.964263 0.3453425 0.002189101
-0.9317566 0.3160688 -0.0653961
-0.9453773 0.3123864 -0.09540886
-0.9358585 0.3075762 -0.109261
-0.9567243 0.3160364 -0.07581698
-0.9325608 0.3069715 -0.1108217
-0.936371 0.3071631 -0.1069685
-0.9369358 0.3084515 -0.1061473
-0.9300926 0.313808 -0.07036868
-0.9092476 0.3237897 -0.05406296
-0.9428073 0.3121207 -0.1015562
-0.923551 0.3167198 -0.07452706
-0.942907 0.3121672 -0.1022846
-0.9318228 0.3096543 -0.09863827
-0.9557844 0.3306859 -0.05392947
-0.9617403 0.3298225 -0.09580851
-0.9063803 0.3360384 0.03554033
-0.9517426 0.3453052 0.007978254
-0.9572721 0.3261109 -0.08480041
-0.9217439 0.305008 -0.1076612
-0.9548856 0.3285257 -0.0629613
-0.9543927 0.3247282 -0.08651901
-0.9334909 0.3129492 -0.0860735
-0.9313549 0.3163768 -0.06997611
-0.925015 0.3172948 -0.06780168
-0.9590971 0.3286901 -0.09261762
-0.9653874 0.3361586 -0.04906762
-0.9591199 0.3290401 -0.09303809
-0.9420131 0.332037 -0.03771027
-0.9649321 0.3520665 0.2376654
-0.9674436 0.3530849 0.2541822
-0.9498338 0.3311628 -0.04173293
-0.9340106 0.3069104 -0.1083653
-0.9375048 0.3071101 -0.1055246
-0.9326687 0.3098362 -0.09983127
-0.9505407 0.3214172 -0.08193726
-0.9672481 0.3129961 -0.07963686
-0.9604921 0.3295412 -0.09784491
-0.9429204 0.3212544 -0.06903987
-0.9295933 0.317423 -0.06344883
-0.9395052 0.3216679 -0.06262454
-0.9321433 0.3373404 -0.02791365
-0.9550213 0.3249237 -0.09982027
-0.9267415 0.3196285 -0.05729361
-0.9646565 0.3343543 -0.08202374
-0.9273656 0.309094 -0.1000706
-0.912451 0.3533242 0.04762641
-0.9195817 0.3062506 -0.1109762
-0.9294048 0.3067811 -0.1096347
-0.9336283 0.3072647 -0.108614
-0.9326672 0.3069949 -0.1106512
-0.9387801 0.3075468 -0.1058687
-0.9275211 0.3093026 -0.1000898
-0.9302592 0.3103705 -0.09608159
-0.9532092 0.3256629 -0.07340942
-0.9494061 0.3390306 -0.04419318
-0.9415815 0.3127326 -0.1050629
-0.9315504 0.3044552 -0.1051541
-0.9383273 0.3078358 -0.1072204
-0.9373904 0.3078888 -0.1070296
-0.9407669 0.3379604 -0.01352912
-0.9689267 0.3398645 -0.07290779
-0.951274 0.3429357 -0.007606952
-0.9281887 0.3057948 -0.1101983
-0.9713968 0.3412414 -0.06779779
-0.95431 0.3281877 -0.06562206
-0.9171736 0.3202848 -0.06164273
-0.9927812 0.3163352 -0.04033649
-0.9661762 0.335584 -0.07906895
-0.9900547 0.3164882 -0.0455563
-0.9441042 0.3315617 -0.0333084
-0.9216203 0.307707 -0.107131
-0.9429572 0.3117578 -0.1020547
-0.964573 0.345659 0.003140926
-0.9335343 0.3129537 -0.08624833
-0.9494554 0.3200801 -0.08318014
-0.9342037 0.3170723 -0.06739295
-0.9495911 0.3200468 -0.08288231
-0.9294299 0.3175469 -0.06316452
-0.9268785 0.3191227 -0.0614296
-0.9544458 0.3168673 -0.08793417
-0.969083 0.3116508 -0.07566839
-0.9349937 0.3171161 -0.05794298
-0.9366092 0.3158056 -0.07788049
-0.966358 0.3133877 -0.08185165
-0.969472 0.3115106 -0.07499152
-0.9327276 0.3070642 -0.1106396
-0.9586164 0.3305536 -0.06503407
-0.9267392 0.3051901 -0.1108785
-0.9644294 0.3350036 -0.08310179
-0.9328178 0.3117002 -0.09090744
-0.950739 0.3255993 -0.06697495
-0.9295346 0.313822 -0.07884916
-0.9501431 0.3212452 -0.08416694
-0.9421341 0.304618 -0.1012567
-0.9579054 0.32818 -0.09545507
-0.9501323 0.3212688 -0.08467787
-0.9363067 0.3206274 -0.06315024
-0.9600338 0.3260342 -0.1020648
-0.9421939 0.3045879 -0.1013183
-0.9576138 0.3252131 -0.0916227
-0.9422105 0.3045641 -0.1011858
-0.9581555 0.3243038 -0.1018843
-0.9351102 0.3175902 -0.0561094
-0.9272334 0.3036071 -0.1121162
-0.9506359 0.3178473 -0.106552
-0.9538438 0.3167331 -0.08941478
-0.966449 0.3242964 -0.08735512
-0.9365225 0.320712 -0.06290531
-0.9313949 0.3073189 -0.1083865
-0.9470351 0.3271249 -0.04257743
-0.9570468 0.338144 -0.02150601
-0.9246779 0.3061609 -0.111072
-0.9176521 0.3173313 -0.05175062
-0.9368917 0.3086804 -0.1071986
-0.9267372 0.3193343 -0.05846317
-0.9469053 0.3269708 -0.04452709
-0.9126014 0.3163244 -0.05151613
-0.9519759 0.3533174 -0.04708512
-0.9637432 0.3458323 -0.07208728
-0.982914 0.3198968 -0.05121525
-0.9789205 0.31925 -0.05877095
-0.9526032 0.3294196 -0.04527978
-0.951975 0.3290657 -0.04828485
-0.9427708 0.3399158 0.0007313217
-0.9268838 0.3051462 -0.1113383
-0.9861652 0.316584 -0.05025482
-0.9447561 0.312557 -0.0973745
-0.9716423 0.3815144 0.1049341
-0.9443389 0.3125974 -0.09858631
-0.9605947 0.3272038 -0.08402645
-0.9468773 0.3270156 -0.04407273
-0.9197813 0.320512 -0.03166682
-0.9311044 0.3208541 -0.05023213
-0.9473368 0.3272401 -0.04159517
-0.9318351 0.3214236 -0.07384495
-0.9316129 0.3211654 -0.05044046
-0.9255184 0.3020725 -0.1023117
-0.9339406 0.3200561 -0.05854377
-0.8983403 0.3283677 0.0005717242
-0.9306278 0.3058806 -0.1117914
-0.9453664 0.3562675 0.05452776
-0.9505693 0.325472 -0.06741732
-0.9452984 0.3562032 0.05369074
-0.9066401 0.3634467 0.1002622
-0.9440576 0.3512384 0.03220142
-0.9414936 0.3207041 -0.06993507
-0.9513145 0.3480484 0.008114126
-0.9541309 0.3235438 -0.08646112
-0.9389512 0.3178343 -0.07815643
-0.9356197 0.3087145 -0.1067421
-0.9240741 0.3078202 -0.1033776
-0.9388468 0.3177592 -0.07784709
-0.9422572 0.3043724 -0.1001825
-0.9635903 0.3457758 0.01145574
-0.9591577 0.3209009 -0.0820584
-0.9308995 0.3062066 -0.1122481
-0.9546735 0.3431094 0.004309565
-0.9675208 0.3220353 -0.07773432
-0.9565148 0.3251359 -0.09413304
-0.9338721 0.3070147 -0.10738
-0.9301315 0.3101857 -0.09471258
-0.9431994 0.3009143 -0.09953818
-0.9241648 0.3079477 -0.1039771
-0.9158963 0.3176388 -0.03770083
-0.9460239 0.3181432 -0.09001937
-0.9220439 0.3092396 -0.1009324
-0.9428228 0.3122694 -0.09878588
-0.9406798 0.3218874 -0.05130927
-0.9481623 0.3153494 -0.09192029
-0.9165962 0.3179573 -0.0432215
-0.9565309 0.3375969 -0.02582018
-0.9296122 0.3138157 -0.07921546
-0.9364896 0.3157988 -0.0775623
-0.9642133 0.3345932 -0.08356868
-0.9348326 0.3145604 -0.08219538
-0.9561226 0.3240733 -0.09877302
-0.9673152 0.3223337 -0.07821196
-0.9668233 0.3208711 -0.07771338
-0.9173468 0.3167465 -0.09638333
-0.9475418 0.3153105 -0.09362438
-0.9272367 0.3033034 -0.1116968
-0.930164 0.3137341 -0.06273176
-0.9507443 0.3215075 -0.08409388
-0.9616286 0.3443283 0.000132335
-0.983914 0.319428 -0.04606262
-0.9448125 0.3126907 -0.09788937
-0.9470875 0.3178284 -0.08424379
-0.9273468 0.308488 -0.1019934
-0.9254739 0.3289847 7.519052e-05
-0.9240345 0.3168998 -0.04931711
-0.9355464 0.3087916 -0.1067064
-0.9309415 0.3207631 -0.05020893
-0.933084 0.3122877 -0.09001756
-0.9161724 0.3177055 -0.04209378
-0.9527994 0.3477198 0.02258148
-0.9315633 0.3061575 -0.1114316
-0.9075997 0.3358927 0.02570076
-0.9279144 0.3279287 -0.03273113
-0.9566454 0.3252844 -0.09535319
-0.9326503 0.3044092 -0.1068477
-0.9311358 0.3060244 -0.1118927
-0.9497303 0.321202 -0.08599138
-0.9275163 0.3093355 -0.09983346
-0.928911 0.3110096 -0.09130961
-0.9491631 0.3151481 -0.08765782
-0.9592251 0.3284836 -0.09103608
-0.94994 0.321164 -0.08521076
-0.9559557 0.3258554 -0.08811989
-0.9334392 0.3044978 -0.1061984
-0.9500466 0.3212206 -0.08502716
-0.9267153 0.3012047 -0.1141051
-0.9514398 0.3289101 -0.05246441
-0.9548618 0.3160155 -0.08607341
-0.9557264 0.3158687 -0.08279599
-0.9545037 0.3164331 -0.08797933
-0.9330386 0.3073366 -0.1110335
-0.9582631 0.330823 -0.06777979
-0.9530304 0.3256401 -0.0746225
-0.9334898 0.3083261 -0.1146478
-0.9565064 0.3263923 -0.09387346
-0.9458178 0.3183001 -0.09104975
-0.9542332 0.3248548 -0.08674451
-0.9162846 0.3250501 -0.01626959
-0.9515674 0.3503999 0.01761911
-0.9359261 0.3083934 -0.1057681
-0.9541839 0.3210466 -0.09007662
-0.9408948 0.3068877 -0.1013711
-0.9542292 0.3246458 -0.08700359
-0.9066301 0.3363581 0.02923313
-0.9503391 0.3483244 0.005070528
-0.9169948 0.3249618 -0.01876229
-0.9202467 0.3206194 -0.03409659
-0.9541588 0.3210762 -0.09074616
-0.9294849 0.3137533 -0.07745778
-0.9297775 0.3233939 -0.03353028
-0.9406635 0.3217935 -0.05136611
-0.9576201 0.3185051 -0.08238459
-0.9391688 0.3178779 -0.07820778
-0.9201468 0.3203473 -0.03085144
-0.954891 0.3246239 -0.08403926
-0.9243913 0.3171484 -0.04896384
-0.9425411 0.312894 -0.1033086
-0.9269407 0.3019352 -0.1154261
-0.9524908 0.3026392 -0.1044845
-0.9426354 0.3125874 -0.103929
-0.9408343 0.307001 -0.1015874
-0.9151728 0.3246832 -0.09715434
-0.9275011 0.3067434 -0.1116703
-0.9383347 0.310383 -0.1040128
-0.9463856 0.3207967 -0.08365182
-0.9539651 0.3193712 -0.09381891
-0.9587795 0.3213129 -0.0840759
-0.934742 0.3142296 -0.07752905
-0.922679 0.3180349 -0.1123743
-0.9141768 0.3178091 -0.06242387
-0.9503179 0.3210923 -0.08408821
-0.9272614 0.30331 -0.111729
-0.9267688 0.301352 -0.1141938
-0.9276065 0.3068794 -0.1116976
-0.9336412 0.3072462 -0.108343
-0.9160005 0.3298637 0.006686523
-0.9325079 0.3070378 -0.1110668
-0.9496454 0.3257751 -0.07071237
-0.933441 0.3143145 -0.07586493
-0.9334748 0.3046078 -0.1063563
-0.9608762 0.3003014 -0.08710329
-0.9658509 0.293534 -0.06793945
-0.9246504 0.3060807 -0.1109744
-0.9541113 0.3211796 -0.09079998
-0.9460608 0.3173864 -0.08237017
-0.9461989 0.3158868 -0.09828416
-0.9335049 0.3145292 -0.07827438
-0.9360381 0.3203915 -0.06009007
-0.9462546 0.3158183 -0.09808058
-0.9505387 0.321301 -0.0843151
-0.9321175 0.3104383 -0.0970401
-0.9409066 0.3127553 -0.101142
-0.935569 0.3084612 -0.1066534
-0.914068 0.3177342 -0.05994038
-0.9457048 0.3182885 -0.091584
-0.9458916 0.3239026 -0.05046586
-0.9168393 0.3179483 -0.04400527
-0.935591 0.3087218 -0.1067008
-0.9327466 0.309959 -0.1001102
-0.9264013 0.3045667 -0.1122089
-0.9160703 0.3247924 -0.005247287
-0.9108686 0.3167351 -0.05043722
-0.91269 0.331763 0.03115766
-0.9193968 0.3063375 -0.1116561
-0.9591171 0.3452714 -0.01824082
-0.9264887 0.3197703 -0.04654733
-0.9533035 0.3232137 -0.08534488
-0.9534478 0.3318782 -0.05360238
-0.9287032 0.3057452 -0.1115166
-0.9324247 0.3102832 -0.071832
-0.9340284 0.3136711 -0.08521028
-0.9256091 0.3050067 -0.1122378
-0.9462151 0.3155109 -0.09717098
-0.9256417 0.3050579 -0.1122744
-0.9370978 0.3087034 -0.1064026
-0.9393753 0.3199353 -0.0668862
-0.9287945 0.3090562 -0.09233805
-0.9307143 0.3054851 -0.1107732
-0.9370402 0.3085453 -0.1061022
-0.9390131 0.3178667 -0.0777645
-0.9394001 0.3202715 -0.07201501
-0.9409206 0.3068466 -0.1015762
-0.9195678 0.3063617 -0.1117203
-0.9297416 0.3103441 -0.09799928
-0.9460659 0.3160822 -0.09951391
-0.9300495 0.3139111 -0.08698561
-0.9416803 0.3190194 -0.08455865
-0.92555 0.3051109 -0.1125092
-0.9247876 0.3203424 -0.1131385
-0.9321162 0.3125316 -0.06496172
-0.9257888 0.3053493 -0.1130585
-0.9310338 0.3208151 -0.05308663
-0.9330019 0.3217496 -0.06277039
-0.943996 0.3131349 -0.1011597
-0.9353112 0.3066163 -0.1047341
-0.9494765 0.3148874 -0.08564901
-0.9426123 0.3123356 -0.1023113
-0.9467008 0.3258881 -0.04939076
-0.9350117 0.3179241 -0.05786403
-0.9280736 0.3058043 -0.1116497
-0.9454983 0.3157222 -0.09506609
-0.9272174 0.311022 -0.0919812
-0.960837 0.300289 -0.08733768
-0.9547007 0.3512688 0.04450083
-0.9310006 0.3145746 -0.05893112
-0.9182448 0.3062366 -0.1166453
-0.9181815 0.3061767 -0.1165085
-0.9181751 0.3061825 -0.1164285
-0.9287916 0.3058387 -0.1118677
-0.9174135 0.3199293 -0.1143799
-0.9211214 0.3014959 -0.1180703
-0.9246898 0.3204277 -0.1124497
-0.9218971 0.3091269 -0.1006172
-0.933827 0.3074858 -0.1084542
-0.9269844 0.3051455 -0.1112701
-0.926291 0.3219591 -0.1149261
-0.9211404 0.301438 -0.1180229
-0.9426227 0.3111635 -0.09847776
-0.9174626 0.306854 -0.112568
-0.940795 0.3124106 -0.09989087
-0.932398 0.3107778 -0.09792162
-0.91725 0.3200684 -0.1145232
-0.9278095 0.3090251 -0.1036402
-0.9352064 0.3176897 -0.0621247
-0.9077831 0.3109197 -0.104879
-0.9295223 0.3145577 -0.07501523
-0.9369009 0.3081183 -0.105114
-0.9362596 0.3068588 -0.1061942
-0.9424495 0.3121135 -0.09858763
-0.9172959 0.3064246 -0.1120126
-0.9424437 0.3121196 -0.09846748
-0.9194009 0.3054545 -0.114921
-0.9303979 0.3105542 -0.09721872
-0.9215717 0.3020007 -0.1184968
-0.9296867 0.3134132 -0.08467504
-0.9186283 0.3179373 -0.1114158
-0.9193574 0.3190737 -0.1141205
-0.9203358 0.3133111 -0.1116459
-0.9297472 0.3146667 -0.0744651
-0.9354765 0.3165468 -0.1009976
-0.9271418 0.3080905 -0.1023386
-0.9321857 0.3062323 -0.1091923
-0.9202335 0.3036214 -0.1096802
-0.9247003 0.3080014 -0.1035967
-0.9202173 0.3054564 -0.1143102
-0.9345707 0.3094059 -0.102312
-0.9422414 0.3016869 -0.09634914
-0.9247366 0.3061959 -0.1110838
-0.9266465 0.3236747 -0.1127345
-0.9337654 0.3135176 -0.08598118
-0.9099907 0.3094748 -0.1124648
-0.9269744 0.3014213 -0.1144555
-0.9264091 0.3075402 -0.1030219
-0.9350923 0.3059497 -0.1053314
-0.9080783 0.3097019 -0.1130075
-0.9099373 0.3094355 -0.1124243
-0.907455 0.3092714 -0.1123792
-0.9240379 0.3015339 -0.1161932
-0.9261873 0.3233303 -0.1123018
-0.942033 0.3096543 -0.1017233
-0.9248353 0.3205 -0.1128724
-0.9189005 0.3067293 -0.1112348
-0.9261532 0.3075215 -0.1044201
-0.9270089 0.3014956 -0.1145179
-0.9203932 0.3057568 -0.1152441
-0.9063435 0.3165912 -0.1111578
-0.9196849 0.3060167 -0.1156011
-0.9194797 0.3055051 -0.1154214
-0.9371741 0.3056307 -0.1017873
-0.9336405 0.3072326 -0.1080605
-0.9432607 0.3009323 -0.1002029
-0.9080629 0.3096446 -0.1129148
-0.923117 0.3180845 -0.1128541
-0.9288212 0.3102326 -0.09531941
-0.9096732 0.309256 -0.1121699
-0.9064516 0.3119969 -0.1057035
-0.9407795 0.3125364 -0.1004051
-0.940933 0.3062222 -0.09994345
-0.9285402 0.3099187 -0.09418195
-0.907397 0.309189 -0.112101
-0.9261283 0.3076914 -0.1049325
-0.9263868 0.3073128 -0.1098508
-0.9433132 0.3016625 -0.1014542
-0.9286516 0.3093806 -0.09737654
-0.910286 0.3096608 -0.1127618
-0.9439648 0.2990775 -0.09851364
-0.9243993 0.3081234 -0.1037239
-0.9362636 0.3071741 -0.1070169
-0.910117 0.3185593 -0.113242
-0.9271736 0.3108493 -0.09128249
-0.9220341 0.3078077 -0.1069827
-0.9085177 0.3129328 -0.1080639
-0.9423906 0.3049708 -0.102388
-0.9433327 0.3018304 -0.1019061
-0.9227425 0.317393 -0.1121447
-0.939029 0.3176039 -0.07666329
-0.9334218 0.3123521 -0.09780212
-0.9263595 0.3168732 -0.03675228
-0.9214254 0.3165535 -0.1092992
-0.9349964 0.3169121 -0.05304525
-0.9291388 0.3110524 -0.09316686
-0.9265586 0.3081861 -0.1059918
-0.9246056 0.3201859 -0.1129188
-0.929872 0.3091947 -0.09961965
-0.9330073 0.311876 -0.09196219
-0.9222939 0.3177496 -0.1113162
-0.9335644 0.3081879 -0.1082183
-0.9290733 0.3049999 -0.1115923
-0.9260432 0.3073314 -0.1036351
-0.9336933 0.3061866 -0.1069268
-0.9298642 0.3093666 -0.1001825
-0.9292372 0.3045014 -0.1105608
-0.9385881 0.3164606 -0.06981566
-0.9298381 0.3085954 -0.1020695
-0.9351916 0.3148974 -0.08589413
-0.9263337 0.3049099 -0.1126267
-0.9299502 0.3096626 -0.09582043
-0.9084929 0.3115504 -0.1062403
-0.9254954 0.3215525 -0.1132489
-0.9301342 0.3100945 -0.09687939
-0.9203626 0.318671 -0.1142111
-0.9251128 0.3204751 -0.114017
-0.9355125 0.3062118 -0.1075698
-0.9360166 0.3084828 -0.1025946
-0.9419795 0.3086886 -0.09917926
-0.9347215 0.309871 -0.1029936
-0.9340689 0.3136587 -0.1054585
-0.9174457 0.3200966 -0.1146837
-0.9098902 0.3137206 -0.1108875
-0.913166 0.3185806 -0.1136919
-0.917033 0.3199057 -0.1140128
-0.9286352 0.3098759 -0.09432258
-0.921246 0.3204135 -0.111857
-0.9257157 0.3217834 -0.1135445
-0.9410704 0.3064117 -0.1006464
-0.9281427 0.3094081 -0.08825064
-0.9191293 0.305802 -0.1109412
-0.9322087 0.3096867 -0.07987826
-0.9313898 0.308922 -0.09423114
-0.9296025 0.3102965 -0.1025955
-0.9362977 0.306832 -0.105856
-0.9324294 0.3109388 -0.09365017
-0.9337573 0.3134257 -0.08514562
-0.9288335 0.3108594 -0.08795425
-0.9202105 0.305483 -0.1148831
-0.9210624 0.3033966 -0.1183177
-0.9320132 0.3104742 -0.09805004
-0.9287241 0.3136097 -0.07077388
-0.9264055 0.3074962 -0.1026043
-0.926803 0.3095516 -0.1009985
-0.9371045 0.3070853 -0.1051595
-0.9335029 0.3124748 -0.09022442
-0.9346449 0.314022 -0.07147117
-0.933216 0.3068841 -0.1079648
-0.9273403 0.3111676 -0.09260141
-0.9325521 0.3108782 -0.09786501
-0.9339905 0.313464 -0.09936618
-0.9262412 0.3178499 -0.03820803
-0.9225767 0.3171713 -0.1124097
-0.9241004 0.3081105 -0.1038554
-0.9261312 0.306946 -0.1073915
-0.9323987 0.3111025 -0.09436553
-0.9284143 0.3052247 -0.1109303
-0.9350382 0.3052126 -0.1056792
-0.9285886 0.3092094 -0.1003878
-0.9284623 0.3054762 -0.1112808
-0.9292235 0.3045934 -0.1107638
-0.9072415 0.310974 -0.1135967
-0.9270104 0.3095326 -0.1080401
-0.9293107 0.309798 -0.1161209
-0.9205987 0.318696 -0.1143504
-0.9172834 0.3031848 -0.1251944
-0.927821 0.3058825 -0.1123745
-0.9180738 0.3197635 -0.1143358
-0.924399 0.318937 -0.1151543
-0.9198297 0.3189263 -0.1137175
-0.9190404 0.3066533 -0.111198
-0.9070797 0.3109444 -0.113375
-0.9207444 0.3052776 -0.1160569
-0.9280849 0.3061012 -0.1128129
-0.9290574 0.3111194 -0.1096861
-0.9257445 0.3016749 -0.1155852
-0.9313704 0.3064256 -0.1114396
-0.9346163 0.3093094 -0.102156
-0.9340421 0.3074923 -0.1079144
-0.9302048 0.3066933 -0.1094375
-0.9285091 0.3096798 -0.09378278
-0.9176603 0.3067291 -0.1124516
-0.9350273 0.3062395 -0.1059843
-0.9283324 0.3089925 -0.09650997
-0.9348254 0.3053845 -0.1043286
-0.9261256 0.3069867 -0.1093665
-0.9252365 0.3205045 -0.1141203
-0.9231735 0.3012778 -0.1165568
-0.9269471 0.3014373 -0.1143885
-0.9321834 0.3067489 -0.1089853
-0.9171536 0.3066896 -0.1122394
-0.9301728 0.3066554 -0.1093525
-0.9311746 0.309736 -0.09877915
-0.9336826 0.3073328 -0.1078314
-0.9201376 0.3198609 -0.1109513
-0.9174917 0.3189029 -0.1129355
-0.9271114 0.3081506 -0.1010977
-0.9234371 0.3070554 -0.1097589
-0.91871 0.3068647 -0.117313
-0.9072047 0.3091801 -0.1121992
-0.93327 0.3038802 -0.1050087
-0.9179995 0.3197748 -0.1142159
-0.9272251 0.3090627 -0.1023926
-0.9285634 0.3101282 -0.08849697
-0.9280906 0.3086171 -0.09592109
-0.923191 0.306665 -0.1091402
-0.9194574 0.3059409 -0.1125481
-0.9256715 0.3088078 -0.08539223
-0.928427 0.309752 -0.09395062
-0.9139845 0.3056122 -0.1044137
-0.9069508 0.3106773 -0.1049666
-0.9259694 0.3073269 -0.1038691
-0.9282163 0.3087838 -0.09627297
-0.9299703 0.3097934 -0.09402155
-0.9322483 0.3065928 -0.1098026
-0.9245741 0.3010425 -0.1152561
-0.9215989 0.3121668 -0.1171309
-0.9026614 0.3099517 -0.104065
-0.9245344 0.3077336 -0.1030351
-0.9284486 0.3076902 -0.1103879
-0.9129055 0.3186168 -0.1137315
-0.9206388 0.3195147 -0.1155836
-0.9058759 0.3100011 -0.1035197
-0.9229477 0.3203215 -0.1131981
-0.9322592 0.3099048 -0.1046488
-0.9237813 0.320629 -0.1133146
-0.9309922 0.3094159 -0.1038764
-0.9298627 0.3067978 -0.1064792
-0.9259841 0.3068078 -0.1088789
-0.9176416 0.3037418 -0.1288191
-0.9221278 0.3057627 -0.1121834
-0.9202675 0.3050646 -0.1156289
-0.9295382 0.3083287 -0.1015527
-0.9332786 0.3034622 -0.1027512
-0.9116455 0.3023755 -0.1214063
-0.9163751 0.3025014 -0.1262658
-0.916676 0.3198914 -0.1139393
-0.9117894 0.3134897 -0.1107312
-0.9163709 0.3036505 -0.1279662
-0.9137629 0.3065737 -0.1265129
-0.9120689 0.3027488 -0.1216802
-0.9209465 0.3202645 -0.1124218
-0.9169179 0.3199782 -0.114185
-0.9207036 0.3055664 -0.1162726
-0.9156481 0.3041322 -0.1261966
-0.9155193 0.3043044 -0.1279008
-0.9130593 0.3058069 -0.1258996
-0.9187009 0.3062806 -0.1121017
-0.9165983 0.3032641 -0.1258224
-0.9208914 0.3202221 -0.1122215
-0.9350902 0.3060414 -0.1055196
-0.9173418 0.3033544 -0.1270014
-0.9206659 0.3054245 -0.1161198
-0.9103335 0.3183011 -0.1126795
-0.9261225 0.3068978 -0.1074847
-0.9162325 0.30355 -0.1280158
-0.9187902 0.3063724 -0.1124114
-0.9159479 0.3038166 -0.128511
-0.904353 0.311143 -0.1042845
-0.9242622 0.3208112 -0.1102705
-0.9093831 0.3032684 -0.1245041
-0.9234852 0.3063304 -0.1128364
-0.9171904 0.3031276 -0.1268338
-0.9205483 0.3050956 -0.1157724
-0.9136347 0.3187851 -0.1142818
-0.9121507 0.305392 -0.125771
-0.9334335 0.3041077 -0.1055439
-0.9173103 0.3033074 -0.1252582
-0.9158953 0.3037609 -0.1261674
-0.9263152 0.3074511 -0.1029184
-0.9260513 0.3070366 -0.1068002
-0.9213021 0.3053882 -0.1136323
-0.9256268 0.3060741 -0.1115377
-0.9230087 0.3055858 -0.1117609
-0.9327637 0.3096858 -0.1035863
-0.9352632 0.3079729 -0.1048571
-0.9329922 0.3101022 -0.1045526
-0.90532 0.311989 -0.1064707
-0.9322911 0.3070166 -0.1094051
-0.9263108 0.3073331 -0.1083258
-0.9200107 0.3052928 -0.1146525
-0.9231408 0.3059765 -0.1120989
-0.9187486 0.3065907 -0.1110085
-0.9261993 0.3082362 -0.1033943
-0.9269577 0.3088551 -0.1017859
-0.9307998 0.3102884 -0.09429302
-0.9292527 0.3095996 -0.09756275
-0.9219492 0.3066472 -0.1103653
-0.9268027 0.3093123 -0.1002315
-0.9209469 0.3133107 -0.1130943
-0.9207749 0.3132527 -0.1128689
-0.9320211 0.3048871 -0.1073492
-0.9296061 0.30488 -0.1106188
-0.9306738 0.305862 -0.1112418
-0.9261655 0.30771 -0.1087504
-0.9273876 0.3069602 -0.1115031
-0.919489 0.3055365 -0.1129513
-0.9163323 0.304019 -0.1272114
-0.9235415 0.3061109 -0.1126673
-0.9187592 0.3075323 -0.1174678
-0.9147782 0.3053795 -0.1310122
-0.927509 0.3080059 -0.1123534
-0.9205666 0.3197005 -0.1102201
-0.9251671 0.3063272 -0.1133398
-0.926428 0.3052756 -0.1130093
-0.9218549 0.3054829 -0.1124488
-0.9168074 0.3034212 -0.1259744
-0.9153504 0.3059664 -0.1313419
-0.9099926 0.3181058 -0.1145819
-0.9171808 0.3030185 -0.1250371
-0.9195916 0.3062826 -0.1110237
-0.9308755 0.3095004 -0.1125978
-0.9160855 0.3056386 -0.1319593
-0.9150199 0.3040547 -0.1268587
-0.9179139 0.319771 -0.11418
-0.9155623 0.3043298 -0.1279435
-0.9156484 0.3037488 -0.1272911
-0.9177715 0.302207 -0.1270677
-0.9044479 0.3111618 -0.1043104
-0.9153301 0.3058918 -0.1313327
-0.9193285 0.3079208 -0.1180363
-0.916965 0.3053868 -0.1272928
-0.9305915 0.3056754 -0.1111964
-0.9176407 0.302082 -0.1269841
-0.9187225 0.3055616 -0.1277735
-0.9151855 0.3057705 -0.1313547
-0.9153897 0.3041117 -0.1278493
-0.908998 0.3055138 -0.1191406
-0.9299784 0.3053177 -0.1111901
-0.9163365 0.3042081 -0.1285913
-0.9175628 0.3039086 -0.1279538
-0.9170092 0.3029805 -0.1281797
-0.9097648 0.3093892 -0.1123691
-0.9156002 0.304093 -0.1279343
-0.9166831 0.3027074 -0.1264858
-0.9201645 0.3056659 -0.1119337
-0.9173876 0.3035374 -0.1287183
-0.9286302 0.3088811 -0.09981503
-0.931299 0.3081312 -0.1085585
-0.9329243 0.3046427 -0.1073559
-0.9278269 0.307578 -0.1092701
-0.9254262 0.3041041 -0.1080918
-0.9213103 0.3053052 -0.1135934
-0.9193986 0.3193571 -0.1146959
-0.916021 0.3070145 -0.1088477
-0.9053183 0.3114999 -0.1073202
-0.9222372 0.3058536 -0.1123262
-0.9223238 0.305738 -0.1136927
-0.9261484 0.3057466 -0.1123483
-0.9275808 0.3098513 -0.1018763
-0.9270638 0.3094049 -0.09520873
-0.9263564 0.3074044 -0.1100338
-0.9204381 0.30554 -0.1144199
-0.9298633 0.3089258 -0.1026659
-0.9243038 0.3200893 -0.1125772
-0.9193119 0.3062904 -0.1116379
-0.9260135 0.3080532 -0.1029159
-0.9211833 0.306515 -0.1155104
-0.929089 0.3108319 -0.09432898
-0.9219338 0.3183761 -0.1136685
-0.9130862 0.306042 -0.1259733
-0.9068951 0.3168974 -0.1115765
-0.9225987 0.3056124 -0.1133728
-0.9287103 0.3093014 -0.1006065
-0.9240505 0.3079289 -0.1035282
-0.9070323 0.3108851 -0.1134377
-0.9229677 0.3057873 -0.1119293
-0.9261886 0.3080398 -0.1068517
-0.9177654 0.3040588 -0.1289475
-0.9269091 0.3069708 -0.1111237
-0.9235237 0.3071988 -0.1010399
-0.9171459 0.3030902 -0.1251333
-0.9159169 0.3032007 -0.1278732
-0.9193326 0.3060378 -0.1109943
-0.9155275 0.3050174 -0.1318045
-0.9236676 0.3196653 -0.111705
-0.9140835 0.3057186 -0.1319699
-0.9186699 0.3063594 -0.1120222
-0.9238632 0.3197798 -0.1120305
-0.9180052 0.3041654 -0.1290239
-0.916481 0.3043026 -0.1261852
-0.9222588 0.3197068 -0.1117621
-0.9256043 0.3056423 -0.1133143
-0.922698 0.3198336 -0.1110007
-0.9173124 0.3032602 -0.1268958
-0.916593 0.3036053 -0.1266409
-0.925036 0.306641 -0.1115918
-0.9263092 0.3073386 -0.09465243
-0.9185282 0.3063534 -0.1113438
-0.9232106 0.3182733 -0.1132878
-0.932744 0.304403 -0.1068965
-0.9144781 0.3059357 -0.1320903
-0.923842 0.3067794 -0.1022046
-0.9224976 0.3198764 -0.1122812
-0.9276431 0.3075977 -0.1093127
-0.9266469 0.3086127 -0.1039799
-0.9242523 0.3057177 -0.1005203
-0.9141195 0.3055866 -0.1318917
-0.9157376 0.30532 -0.1318606
-0.9178482 0.2946945 -0.09068049
-0.9154666 0.3051041 -0.131072
-0.9187379 0.3048702 -0.115371
-0.9173856 0.3038339 -0.1287095
-0.9153405 0.3034291 -0.1267085
-0.9185339 0.3063518 -0.1107315
-0.9278239 0.3068879 -0.1091083
-0.9251674 0.3038241 -0.1080685
-0.9160501 0.3037274 -0.1260443
-0.9221839 0.3086784 -0.0989394
-0.9049627 0.311141 -0.1040833
-0.9283856 0.309014 -0.09677088
-0.9300168 0.3088847 -0.1027068
-0.9200024 0.3052322 -0.1147133
-0.9148182 0.3053577 -0.1327676
-0.9271719 0.3036261 -0.1120217
-0.9228945 0.305492 -0.1130951
-0.9232864 0.3054839 -0.1127914
-0.9252872 0.3062182 -0.1129327
-0.9207075 0.3191236 -0.1142241
-0.9152014 0.3043728 -0.1271237
-0.9173531 0.3040349 -0.1282577
-0.9118718 0.3191983 -0.1152363
-0.9238636 0.3196436 -0.1116676
-0.9170598 0.3038151 -0.1278427
-0.921436 0.3127771 -0.1138184
-0.9118822 0.3191766 -0.1152284
-0.9148088 0.3053634 -0.1327334
-0.9124573 0.3193877 -0.1156913
-0.9234309 0.3143217 -0.1165304
-0.9150943 0.3062806 -0.1326808
-0.9256231 0.3064359 -0.108415
-0.9268583 0.3055386 -0.1127501
-0.9237138 0.3196498 -0.111565
-0.9189126 0.3004244 -0.1276982
-0.9170566 0.3023457 -0.1314166
-0.9187123 0.3015078 -0.1292186
-0.9150033 0.3025104 -0.1263413
-0.9061276 0.3100815 -0.1035508
-0.9265748 0.307599 -0.1086086
-0.9202916 0.3066881 -0.1028093
-0.9271914 0.306025 -0.1132129
-0.921636 0.3176292 -0.1129715
-0.9232754 0.3173931 -0.1156604
-0.9158964 0.3054683 -0.1318855
-0.9212748 0.3072216 -0.1063062
-0.919244 0.3022256 -0.1295649
-0.9186712 0.3063439 -0.1107366
-0.9223428 0.3174746 -0.1134891
-0.9255378 0.3050663 -0.1123779
-0.9287339 0.30418 -0.1103481
-0.9211414 0.3074878 -0.09681798
-0.9157029 0.3069965 -0.1330409
-0.9254818 0.3049975 -0.112375
-0.92613 0.3054319 -0.111996
-0.9188721 0.3064883 -0.1109216
-0.9164569 0.3046537 -0.1277748
-0.9235268 0.3102408 -0.1024498
-0.917415 0.303419 -0.1262003
-0.9254255 0.3050757 -0.1124488
-0.9146996 0.305191 -0.1324948
-0.9289084 0.3081394 -0.1146657
-0.91769 0.3020354 -0.1269407
-0.9151767 0.3067136 -0.1329764
-0.9143403 0.3048952 -0.1324389
-0.9230164 0.30148 -0.1170252
-0.9201867 0.3053176 -0.1147127
-0.9259267 0.3070866 -0.1097998
-0.9156576 0.3054317 -0.1314652
-0.9259534 0.3077053 -0.1062404
-0.8995652 0.3080136 -0.1002733
-0.9157769 0.3035552 -0.1284292
-0.9156131 0.3053756 -0.131267
-0.9186521 0.3062751 -0.1105884
-0.9192364 0.3182085 -0.1121109
-0.9047317 0.3112934 -0.1045721
-0.9174692 0.3041189 -0.1282842
-0.9157591 0.303602 -0.1258139
-0.9264244 0.3058164 -0.1108461
-0.920137 0.3185593 -0.1139112
-0.9227632 0.3057766 -0.1135948
-0.9176308 0.3058972 -0.1164929
-0.9226156 0.3058608 -0.1121269
-0.924519 0.3005691 -0.1148558
-0.9237626 0.2999042 -0.1139695
-0.9176657 0.3019699 -0.1270228
-0.923159 0.3182419 -0.1131625
-0.91663 0.3038744 -0.1281834
-0.917447 0.3037795 -0.127689
-0.9165281 0.3036652 -0.1274043
-0.9229001 0.2991036 -0.1137001
-0.9179184 0.3032316 -0.1277412
-0.9263674 0.3012832 -0.1137737
-0.9233327 0.3162977 -0.1155481
-0.9158099 0.3053792 -0.1318745
-0.9157061 0.3033732 -0.1258007
-0.9115395 0.3051226 -0.125245
-0.921676 0.3050008 -0.112917
-0.922123 0.3181899 -0.1131805
-0.9223805 0.3030786 -0.1193735
-0.917056 0.3066134 -0.1122641
-0.9139738 0.3098525 -0.1349753
-0.9132527 0.30804 -0.1349
-0.9244815 0.3066434 -0.1083184
-0.9177446 0.3191925 -0.1142461
-0.9190695 0.3055207 -0.1101734
-0.9212889 0.3035802 -0.1184433
-0.9114941 0.3021041 -0.1213256
-0.9075176 0.3136331 -0.1132819
-0.9173697 0.3027833 -0.1316039
-0.9169 0.3033246 -0.12722
-0.9153171 0.3016427 -0.1263095
-0.9226861 0.3185333 -0.1137972
-0.9189601 0.3046478 -0.1322715
-0.9123727 0.3072878 -0.1286609
-0.9035434 0.3085536 -0.1003112
-0.9126014 0.3097316 -0.1338461
-0.9183035 0.303179 -0.1119949
-0.920386 0.307016 -0.1119787
-0.9158799 0.3056999 -0.1315847
-0.9160342 0.303787 -0.1285847
-0.9143944 0.3090244 -0.1351621
-0.9155979 0.3069128 -0.1070151
-0.8936865 0.3151565 -0.1243029
-0.9278209 0.2974109 -0.1117491
-0.9050165 0.3093245 -0.1017744
-0.9196464 0.3050955 -0.1139123
-0.9157659 0.3027744 -0.1253599
-0.9169787 0.302277 -0.1313723
-0.9167472 0.3029841 -0.1258322
-0.917759 0.303038 -0.1276518
-0.9162072 0.3032957 -0.1256327
-0.91603 0.3023845 -0.125418
-0.9030089 0.310095 -0.1041287
-0.926438 0.3012848 -0.1137583
