# .PCD v.7 - Point Cloud Data file format
VERSION .7
FIELDS x y z
SIZE 4 4 4
TYPE F F F
COUNT 1 1 1
WIDTH 1591
HEIGHT 1
VIEWPOINT 0 0 0 1 0 0 0
POINTS 1591
DATA ascii
-0.5797347 0.02444448 0.9869688
0.1767718 -1.102586 2.672871
-0.444282 0.01826758 0.888561
-0.08339012 0.2189228 0.5828982
-0.03227619 0.2838728 0.5951608
0.2151046 0.08086528 0.9979294
0.3516239 0.01097016 1.071541
-0.1823545 0.4067806 0.6979675
0.3813221 0.007300591 1.079501
-0.1862594 0.4088111 0.7127625
-0.07880812 0.4463478 0.7051744
0.4463801 -0.1913956 1.238243
0.3823491 0.008406637 1.074102
-0.07087194 0.3746801 0.6582258
-0.371685 0.1202191 0.9299523
0.219363 0.4170511 0.7749296
-0.1831283 0.3913069 0.7374073
-0.5364611 -0.01198763 0.9198658
-0.5311037 -0.07770715 0.9254684
-0.1126128 0.2728249 0.5353393
0.342911 -0.2816418 1.28236
0.2233289 0.4269169 0.7676337
-0.1602646 0.4003433 0.7091532
-0.2830629 -0.09900757 1.129296
0.5575135 -0.4185285 1.457292
0.2302147 0.4570796 0.7507788
-0.294733 -0.06523279 0.9621115
-0.3435436 0.08247802 0.848473
0.2675413 -0.3909675 1.377996
-0.06490076 0.3360895 0.6033635
-0.05879719 0.4142744 0.7531462
-0.1059695 0.2598793 0.5468393
-0.06659051 0.3357192 0.6124787
-0.1888123 0.3103678 0.6794406
-0.06290472 0.3378334 0.5721523
-0.1060448 0.3514665 0.5242396
0.3029917 0.06624002 1.026535
0.1002616 0.4472754 0.7611344
-0.2079023 -0.05505012 0.9693067
0.3527874 -0.05633759 1.127677
0.4622014 -0.02055159 1.101532
-0.2845745 -0.008249586 0.9438878
0.1215553 0.09342503 0.9786416
-0.2732514 -0.01530302 0.9315094
-0.2965834 -0.009514007 0.8464128
-0.378545 -0.05439961 0.9490247
0.3587915 0.06017535 1.034942
-0.09183871 0.3668049 0.6843849
-0.4244649 0.07524316 0.8538024
-0.4454895 0.003553736 0.9043073
0.446207 0.04692043 1.0602
-0.09581733 0.372603 0.6902309
-0.0963916 0.3602031 0.6627133
0.2317028 -0.003242104 1.066776
-0.03249571 0.2841955 0.5909962
-0.1879245 0.01100143 0.9305747
-0.1363237 0.3476186 0.6768513
-0.4493476 -0.003274773 0.9138051
-0.07553893 0.4526697 0.7188368
0.2712176 -0.318148 1.313088
0.5302426 -0.235036 1.296437
0.3697534 -0.05529099 1.132796
0.1782314 0.3762769 0.7138013
-0.2463996 -0.02776131 0.9658697
-0.2621537 0.06557444 0.8808153
-0.3241881 0.1451111 0.8122841
-0.3203405 -0.02986013 0.9267221
0.239785 0.4787014 0.7339566
-0.1169248 0.3351288 0.6255831
-0.1358989 0.4474449 0.676405
-0.3216033 0.248395 0.7334006
-0.0288049 0.2625704 0.5546844
-0.4495914 -0.0013401 0.9129666
-0.2982059 0.03742308 0.8788429
-0.3074016 -0.08195923 0.9972831
-0.2096051 0.06247472 0.8878909
-0.2754246 0.1015617 0.8251777
-0.3159066 0.1310548 0.8192426
-0.3763115 0.1226602 0.8184853
0.2286335 -0.3109225 1.327007
0.1860924 0.315472 0.8456433
-0.4358795 0.1883723 0.7702159
-0.4983239 -0.02412418 0.9215459
-0.3936534 0.03085577 0.8913221
-0.07471621 0.3768803 0.7774608
-0.5320584 0.03146 0.9022152
-0.446528 0.3173577 0.7715088
0.3273827 0.06611131 1.023314
-0.2399947 0.06508961 0.8138895
-0.07225534 0.3968509 0.6967193
-0.1548936 0.391383 0.6725078
-0.1118853 0.3371096 0.6004608
-0.08912407 0.4390545 0.6871883
-0.05381462 0.3894091 0.7244996
-0.1758236 0.290212 0.5696047
0.2071893 0.03171198 1.03274
0.114898 0.07016434 0.9921093
-0.259549 -0.08576461 0.9856345
-0.4106236 0.1133064 0.8229703
0.4691387 -0.004023583 1.10483
-0.3231028 0.1429257 0.8160301
0.2800293 0.04571357 1.036379
0.6218712 -0.4190057 1.49727
0.2609311 -0.01244155 1.081231
0.2898709 -0.007541995 1.076315
-0.3654423 -0.01297985 0.9313706
-0.3129195 0.03796067 0.8952704
-0.24622 -0.02559127 0.9500169
0.3334248 0.0599188 1.041307
-0.2079621 -0.05718759 0.9766335
0.1624824 -0.03162054 1.07808
-0.4267897 0.06613405 0.8610421
-0.3738585 0.1170605 0.8251732
-0.3907767 0.02610433 0.8950757
0.3667489 0.03765367 1.053364
-0.169478 0.07753746 0.8837602
0.2179479 0.013237 1.047361
0.1063914 0.04452805 1.00903
-0.006591049 0.03224171 1.026122
-0.2603591 0.02935637 0.9036868
-0.009983284 0.0003576403 1.109761
0.1641132 0.06501821 0.9986172
-0.122325 0.352359 0.6476108
-0.4079469 0.1568868 0.7935807
-0.01088649 0.2575574 0.883612
-0.1108046 0.3581225 0.6741095
0.3516312 0.267088 1.003127
-0.1156309 0.3340771 0.6175318
-0.1079128 0.3390226 0.5879031
-0.109521 0.3391055 0.5941914
-0.152175 0.1034317 0.8772482
-0.09735304 0.360933 0.6408247
-0.08229239 0.3714385 0.5372046
-0.1858598 0.4038719 0.7271173
0.4619844 0.05406995 1.03672
0.1825353 -0.01226183 1.099766
0.2882785 -0.007913548 1.076065
-0.1091588 0.3383377 0.5930527
0.5657836 -0.4287132 1.485744
-0.05682118 0.3911645 0.7313741
-0.3322902 0.1205665 0.8506657
0.5376893 -0.2610264 1.596196
0.2297079 0.005605939 1.049653
0.2458388 0.5109 0.7070997
0.2162932 0.0798682 1.000402
0.1734294 0.007324032 1.047023
0.381762 0.006040127 1.081859
-0.0915874 0.367737 0.6781781
-0.3382635 0.06231688 0.868862
0.150451 -0.001876718 1.077259
-0.2764752 0.001887645 0.9180267
-0.3606418 -0.0076088 0.9236252
-0.3628115 0.006083925 0.9105482
0.2796301 0.04716081 1.032608
0.4712716 0.1922444 0.9766134
-0.2697427 -0.1113539 1.011764
-0.3439777 0.03930507 0.8851919
0.3385828 0.04123151 1.046333
-0.1002448 0.2768271 0.5345201
-0.1701713 0.2941449 0.5619057
-0.1141131 0.3354898 0.6089866
-0.1490163 0.101012 0.8902953
-0.1645961 0.29803 0.5430598
-0.2646806 0.1631524 0.8049544
-0.1549135 0.2809813 0.511529
-0.31374 0.1012862 0.8237752
-0.1733816 0.2451312 0.5776259
0.1136851 0.07018676 0.9884165
0.3181466 -0.0113357 1.081659
0.202228 0.0005958568 1.059947
0.2314273 -0.3342267 1.368239
0.3817292 0.007801055 1.079544
-0.1239653 0.3871231 0.6737794
-0.3021667 -0.07557669 0.9828528
0.3501917 0.0137174 1.066247
-0.4296751 0.06872299 0.8647912
-0.2822582 -0.03980958 0.9555181
0.3240815 -0.05363802 1.122057
-0.05795703 0.3833469 0.6900144
0.14166 -0.0284976 1.070903
0.173556 0.007784456 1.048159
-0.01304619 0.2463374 0.9460435
0.2418543 0.1188695 0.9974128
0.3537071 -0.05941492 1.131247
-0.2559093 0.05273274 0.8894504
0.2582057 0.5434593 0.6945454
0.5529803 -0.07397312 1.162447
-0.04333766 0.2073525 0.9069754
0.4526145 -0.01192067 1.124675
-0.3169844 0.1313173 0.8184838
0.3613072 0.06173399 1.032485
-0.04343147 0.3364086 0.5311919
0.09832416 0.446316 0.762965
-0.1084751 0.1381555 0.8155257
-0.08227807 0.2804571 0.5237445
-0.1244583 0.355048 0.6445648
0.1460449 0.01140836 1.04083
0.1797485 0.03368094 1.028167
0.1294673 -0.02040458 1.086972
0.3387266 0.03885311 1.050156
0.1600555 0.2132393 0.8866939
0.4796955 0.1714581 0.9620344
0.493228 0.2119819 0.9628803
0.4787679 -0.0719677 1.157073
0.4205084 0.06824511 1.065159
0.2364053 0.02648528 1.043101
0.3624054 0.05984001 1.039366
-0.05765815 0.4095359 0.7509989
-0.05843657 0.4093864 0.7524403
-0.1760115 0.0547649 0.8977256
0.1222682 0.09409133 0.9766517
-0.09741374 0.4185146 0.7252063
0.2227963 -0.2625557 1.345729
-0.337956 0.06441212 0.8665984
0.1790186 0.3012089 0.8600335
-0.1127582 0.1895125 0.7888083
0.5091746 0.270191 0.9278452
-0.09230478 0.2115511 0.8042226
-0.1749182 0.05515345 0.897536
0.1795749 0.03350384 1.028722
0.5641034 -0.04732941 1.149155
-0.09455898 0.3728975 0.6891135
0.6060461 -0.1865696 1.439629
0.4850822 0.07151658 1.044907
0.5315911 -0.07630715 1.193217
0.8278493 -0.6091409 2.378957
-0.2286976 0.02488859 0.9165087
0.5331457 0.3387159 0.8907697
0.4813362 0.1915372 0.9770584
-0.201673 0.08439042 0.8727121
0.4164489 0.08013882 1.035763
0.5519562 -0.07934298 1.168224
-0.09202579 0.2323756 0.8600448
0.644526 -0.0532221 1.173512
-0.115614 0.1943738 0.806369
0.6223775 0.001970567 1.127061
0.5715314 0.01089712 1.110847
-0.04879798 0.3877206 0.7121407
-0.0624675 0.3832496 0.7287596
0.05989892 -3.198155e-05 1.08424
-0.2048305 0.07886186 0.8800607
0.6417229 0.1639588 1.040927
0.08012052 0.01075653 1.039771
0.6274839 0.002164197 1.127252
0.1524595 0.03859067 1.023247
0.6777031 0.04103921 1.099489
0.1845329 0.2812304 0.8712748
-0.04299113 0.4156732 0.726734
0.5787337 0.05977381 1.071003
0.7259856 -0.1301406 1.251719
-0.05953989 0.4109965 0.7589147
0.5634968 0.4330654 0.8285471
0.231292 0.1157723 0.9844832
0.6249109 0.003190665 1.124814
0.4792151 -0.0709508 1.154396
0.3483087 -0.0101707 1.082123
0.4923161 0.2502294 0.9094498
0.3478526 -0.01294727 1.085776
-0.08544543 0.2258948 0.7975836
0.7256078 -0.1303697 1.253021
0.6138188 -0.02274845 1.139263
0.6639258 -0.003467977 1.129724
0.6904702 -0.08052764 1.221931
-0.06235867 0.4098548 0.7613616
0.5660548 0.4374305 0.8309781
-0.09157108 0.2496751 0.8463266
-0.1056688 0.2408283 0.8713627
0.3919066 -0.05691044 1.143879
0.5373533 0.3519104 0.8816136
0.2754881 0.006007721 1.060806
0.7413665 -0.08274987 1.210442
0.5866057 -0.08111647 1.181837
-0.06226495 0.4115708 0.7612959
0.2319285 0.1142517 0.9794981
0.1811756 0.1121432 0.9730806
0.5788677 0.06020321 1.069629
0.6059455 0.05601307 1.076329
0.7109547 -0.03788375 1.163413
0.2851287 0.5797624 0.6518534
-0.1727716 0.1709005 0.8536612
0.6913573 -0.06042857 1.176047
0.3750992 -0.02226188 1.103173
0.4222948 -0.0648546 1.142566
0.2794064 0.5834552 0.6439951
0.2774075 0.5825584 0.6483064
0.6914469 -0.009927059 1.141845
0.6758244 0.04646139 1.092903
0.2796158 0.581641 0.6443441
0.09934837 0.4469512 0.7623739
0.290295 -0.0232399 1.148856
0.6138591 -0.07565791 1.192813
0.2515587 0.05104445 1.023368
-0.1216411 0.1510937 0.8349649
0.6377185 0.1641199 1.038055
0.5917535 -0.04312224 1.14047
0.6964641 -0.01833651 1.159267
0.4692205 -0.05152662 1.17024
0.6039712 0.5771213 0.74173
0.5826446 0.478226 0.8110307
0.5725052 0.4575819 0.8160117
0.5474955 0.3815898 0.8623252
0.6032456 0.5664133 0.7323393
0.563295 -0.04301791 1.143273
0.2912262 -0.04878677 1.118065
0.5991219 0.5341201 0.7410237
0.5954598 0.5443279 0.746183
0.2932726 0.5862318 0.6281534
-0.1823957 0.1577805 0.9490963
0.8350415 -0.1403016 1.274661
0.5343179 0.5703068 0.7243793
0.5573524 0.4122414 0.838034
0.522274 0.06722784 1.05601
0.2939356 0.5866313 0.6259133
0.5121532 0.5742974 0.7034463
-0.09373549 0.2619893 0.8587148
0.6017145 0.5660896 0.7305444
0.7232884 0.02700667 1.097354
0.6842282 -0.03253185 1.155396
0.6007891 0.5658768 0.7360336
0.6836155 -0.0288434 1.145151
0.1798324 0.03280337 1.029791
0.7572449 0.02095695 1.152728
0.7001075 0.01702093 1.121316
0.3241321 0.01475597 1.065697
0.4912561 0.2237424 0.9353256
0.6402934 0.1660957 1.032935
0.6573432 0.1477756 1.097943
0.6388852 0.05114629 1.089949
0.2651895 0.02241226 1.0491
0.2801424 0.04552851 1.034532
0.8015853 -0.5269976 2.107736
0.4947489 0.2200659 0.9613797
0.5317149 -0.0842263 1.180113
0.7196746 -0.06365974 1.183442
0.4813526 0.5871615 0.6921695
0.5960984 0.5439734 0.7458028
-0.1299511 0.1658941 0.9339165
0.2328164 0.1157485 0.9806111
0.2876199 0.6033165 0.6407019
0.4623763 -0.02932478 1.116186
0.7400364 0.042686 1.107914
0.5957575 0.5441885 0.7412651
0.5848888 -0.01671926 1.126904
0.5930329 0.5343071 0.7308611
0.2759948 0.5826761 0.654466
0.6379218 0.05051878 1.087925
0.5215124 0.0671294 1.052911
0.5917495 0.5279757 0.7534167
0.5951206 0.5549409 0.7655116
0.6464204 0.5855176 0.8779304
0.2808689 0.5839823 0.6620056
0.5945928 0.5350473 0.7332468
0.5891669 0.5268884 0.7401031
0.5911099 0.5437604 0.7212537
0.7406623 0.04238174 1.109835
0.347785 -0.01458054 1.090056
0.4025054 -0.03484955 1.126176
0.5968794 0.5344526 0.7377406
0.5937696 0.5314159 0.7301621
-0.09027112 0.2125072 0.799383
0.5903021 0.5340525 0.774061
-0.09011409 0.2119477 0.7988815
0.321248 -0.05021935 1.117246
0.5761743 0.4703371 0.8055789
0.4730785 0.2518618 0.9392612
0.26868 0.5533579 0.6653136
0.3676798 0.2859545 0.8953169
0.3096643 0.2820831 0.8885809
0.5731815 0.4498056 0.8177615
0.1634853 0.2232342 0.8919669
0.5665357 0.5469332 0.7279608
0.2823541 0.618234 0.6524311
0.3708736 0.6071356 0.6800913
0.2842544 0.6155348 0.640526
0.2540714 0.2982723 0.845978
0.3096754 0.6000521 0.6591372
0.6038929 0.5768991 0.7423738
0.5010887 0.5792958 0.6933052
0.6029376 0.5759348 0.7396483
0.3411747 0.6132374 0.6722991
0.2806561 0.6217788 0.6705197
0.286163 0.6046984 0.6522638
0.5659002 0.5469022 0.7210659
0.3698501 0.2721062 0.9523219
0.312728 0.5930161 0.6271089
0.2891867 0.6047896 0.6553528
0.310446 0.600239 0.6643641
0.2023408 0.2762483 0.8770549
0.4712908 0.5742851 0.6191477
0.286773 0.6160115 0.7251444
0.5895026 0.5518045 0.743903
0.2847438 0.6171691 0.6437066
0.4697513 0.5925465 0.6975265
0.1968386 0.2745867 0.8839955
0.2751958 0.5802959 0.6550924
0.3139551 0.5904415 0.6192902
0.4981607 0.584923 0.7001894
0.3118398 0.6036336 0.6718547
0.2639855 0.6112958 0.7646181
0.5064729 0.5910958 0.7370822
0.574183 0.6373098 1.035621
0.294938 0.5921765 0.6022058
0.2809255 0.5908906 0.6448732
-0.09055823 0.2122455 0.7997465
0.6619276 -0.005601554 1.130711
0.3119791 0.5921942 0.6229929
0.7016789 0.01939066 1.121098
0.7128334 -0.03746445 1.166176
0.583818 -0.01723984 1.128815
0.5853279 0.4976479 0.7868611
0.6553892 -0.03084743 1.151967
0.5866958 0.5148888 0.7853153
0.5396444 0.3659843 0.8914204
0.1618563 0.2327626 0.8931091
0.2053255 0.2767945 0.8792314
0.5123596 0.5797191 0.711345
0.5575784 0.4319695 0.8093248
0.1209305 0.06862146 0.9925374
0.2663643 0.561312 0.6833623
0.5845377 0.5705118 0.709132
0.1195888 0.06768831 0.9960881
0.7405767 0.04130687 1.110112
0.1389602 0.2714719 0.8817446
0.7972158 0.05714716 1.12554
0.2248627 -0.02410887 1.111775
0.4621536 -0.03130433 1.120771
0.7182878 -0.0124385 1.144136
0.4771359 0.04703359 1.064867
0.5962963 0.543981 0.7482421
0.5009021 -0.005381494 1.108338
0.6594716 0.1695744 1.032974
0.201066 0.3378898 0.8899065
0.237773 0.2933275 0.8699704
0.5806559 0.4852032 0.8001515
0.4779952 0.04642997 1.061608
0.2282815 0.3084256 0.853414
0.5513303 0.3886438 0.8574354
0.4847827 0.07253036 1.045317
0.2246094 0.3061306 0.8634334
0.6048787 0.05710383 1.071114
0.4871369 0.5827006 0.6709923
0.4866595 0.2231956 0.9268236
0.6987732 0.01423884 1.121774
0.2396815 0.2908114 0.874779
0.2871142 0.6037923 0.6428146
0.6785675 0.04091375 1.102576
0.5635644 0.0108093 1.113235
0.4801128 0.5872706 0.6905569
0.3063956 0.6197283 0.6602333
0.3040674 0.6200791 0.6643652
0.6779025 0.04186085 1.104727
0.7246684 -0.06956141 1.197523
0.5649315 0.01043841 1.111196
0.5889197 0.5283891 0.7358488
0.5634283 0.0112631 1.111955
0.4341556 -0.02821896 1.115587
0.3430898 0.2736828 0.9155573
0.2287198 0.2726501 0.891088
0.2923274 0.595373 0.6207563
0.2314167 0.2696545 0.894057
0.5527138 -0.0755996 1.160072
0.4794672 -0.02589891 1.117434
0.2405179 0.2706197 0.8894929
0.204995 0.2778142 0.8745899
0.5955972 0.5439235 0.7443107
0.238841 0.2705192 0.8905357
0.3667634 0.03531322 1.056282
0.344436 0.2738938 0.9118925
0.8706656 -0.101641 1.271103
0.5099906 0.2723922 0.9333308
0.7000779 0.01759496 1.118286
0.8571981 0.2113297 1.037972
0.8547056 0.2130012 1.039577
0.7897183 0.1955107 1.033655
0.5994222 0.03168063 1.093895
0.9429865 -0.1103324 1.29007
0.7899895 0.195428 1.034626
0.2177518 0.2739574 0.881318
0.8103464 0.3241324 0.8987616
0.5454392 0.3811705 0.8734767
0.4396196 0.003974331 1.092868
0.8101329 0.325015 0.8936958
0.8734082 -0.04436256 1.200662
0.1910401 0.2828074 0.8527228
0.5200327 0.06476817 1.057433
0.8810054 -0.07539298 1.220933
0.7129198 0.1899932 1.038842
0.333397 -0.002641895 1.077017
0.7264143 0.01306381 1.125091
0.5184317 0.2929907 0.9211518
0.7204325 -0.01251369 1.143543
0.2830314 0.281897 0.8847283
0.680316 0.04439921 1.099083
0.165655 0.2370386 0.8836541
0.7513658 -0.03770601 1.190468
0.8093976 0.3263848 0.8875293
0.9507064 -0.1170533 1.240933
0.9487665 -0.1135441 1.232823
0.5979819 0.5342281 0.7326367
0.7828277 0.2014277 1.042105
0.8680386 0.3657744 0.8742949
1.019917 -0.1127784 1.283724
0.9419006 0.02008967 1.153186
0.9495806 -0.1160314 1.232148
0.8380309 0.3710254 0.8698118
0.9723653 -0.1345184 1.491587
0.950109 -0.03073629 1.314806
0.9224616 0.07732175 1.127057
0.8805326 -0.03064577 1.195311
0.9285856 -0.05955313 1.321681
0.2875172 0.2694297 0.9542217
0.3536305 0.2753204 0.890197
0.2515267 0.2687724 0.8901618
0.4305578 0.2733651 0.9216847
0.4730465 0.2542022 0.935709
0.2386135 0.290634 0.876945
0.3091102 0.2808333 0.8922027
0.4746952 0.246756 0.9658114
0.8525831 0.2142371 1.045907
0.7488506 -0.07791667 1.210731
0.2515042 0.3349533 0.8579365
0.6914741 -0.01112321 1.144911
0.9008211 -0.06368394 1.261109
0.9444398 -0.1064327 1.275293
0.254819 0.2651645 0.900637
0.3508762 0.2775294 0.8927088
0.4329848 -0.02617235 1.112482
0.8493258 0.3481875 0.8664511
0.6381032 0.1653554 1.034994
0.9535751 0.05674548 1.141884
0.2617963 0.2913991 0.887022
0.8916463 0.4025138 0.8778079
0.8782881 0.3943984 0.8691108
0.9332003 0.01689052 1.173509
0.9408965 0.02275013 1.083771
0.7130893 0.1779599 1.050027
0.8796418 0.3644351 0.9082013
0.893769 0.3954639 0.8811877
0.7466307 0.5477032 0.7810671
0.8698198 0.3537495 0.8923889
0.8632469 0.4412298 0.8954505
0.2935877 0.2924471 0.8650268
0.2757017 0.2784095 0.9021997
0.8648522 -0.09815865 1.260621
0.2322363 -0.0002130937 1.060286
0.5646666 0.5509713 0.7327627
0.7882209 0.5457947 0.799454
0.88879 0.4032459 0.8681501
0.846235 0.3752972 0.8907506
0.4592773 0.07786378 1.033156
0.3979001 0.2829681 0.8952361
0.8932915 0.4022159 0.8825111
0.9331238 0.4482752 0.8863057
0.7914518 0.07743786 1.126039
0.2479663 0.267409 0.8967711
0.6379293 0.1648076 1.038454
0.3008316 0.0662696 1.026668
0.7290697 0.01116836 1.134443
0.9611461 -0.03868731 1.343138
0.8204447 0.5453921 0.8301329
0.315243 0.2943019 0.8738282
0.4570265 0.07577073 1.037681
0.7470579 0.1740359 1.086505
0.3654709 0.2845552 0.9041045
0.9324727 0.4464689 0.8855079
0.2885872 0.2666205 0.9688488
0.7621205 0.0183048 1.134152
0.5204955 0.06370173 1.063144
0.4865599 0.07170162 1.044141
0.7915431 0.06077233 1.14852
0.1818035 0.1121435 0.9693022
0.8028415 0.5336983 0.7748898
0.7356901 0.03970133 1.104666
0.8443483 0.3329388 0.9086637
0.8386139 0.3715228 0.8746393
0.9953645 0.143408 1.121046
0.7397889 0.0337245 1.128542
0.8742369 0.3726874 0.8563648
0.8866534 0.4070963 0.8787463
0.9787521 0.080965 1.170645
0.9612951 0.0766708 1.149353
0.3129117 0.2747567 0.9132417
0.5888416 0.5332001 0.7502365
0.5032276 0.5805143 0.6971753
0.2597858 0.3356797 0.8384171
0.7161223 0.190001 1.002207
0.3621674 0.2816281 0.9202194
0.5154188 0.05797395 1.081968
0.1825649 0.1144243 0.9676449
0.4792733 0.04816822 1.061789
0.6122518 -0.02203289 1.137363
0.4417679 0.007043435 1.085496
0.5778248 0.055592 1.083616
0.8752125 0.3982989 0.8609336
0.9935384 0.5407367 0.9442855
0.9714765 0.1861387 1.018268
0.395533 0.2818143 0.900735
1.007374 0.2379392 1.017541
0.986106 0.2720621 0.9990474
0.7978482 0.05693248 1.128008
0.9759343 0.5482478 0.9584878
0.8382308 0.3355114 0.8877596
0.9878696 0.1667386 1.076002
1.025891 0.2131144 1.083183
1.001809 0.1924483 1.067668
0.8403989 0.3345298 0.8964646
0.7839711 0.2000981 1.050448
0.9698848 0.1349546 1.088533
0.7225623 0.1841338 1.015548
1.010526 0.1507109 1.141147
0.8748387 0.4086694 0.8472746
0.5629482 0.01091088 1.11267
0.8343468 -0.1397177 1.274538
0.7040259 0.1734875 1.052256
0.978638 0.260556 1.000997
0.7437783 -0.01560371 1.136424
0.8218693 0.5490465 0.8433752
0.8823563 0.4350506 0.8713046
0.6112797 -0.02326173 1.138079
0.2504186 0.2937031 0.8743929
0.7383 0.04101145 1.111613
0.3726673 0.2863623 0.8885579
0.5680943 0.4446837 0.8222816
0.9842429 0.2617445 1.009346
0.6546396 0.1747558 1.025318
0.9609795 0.3254004 0.8620788
0.9785639 0.3953099 0.9237192
0.9793891 0.1905759 1.030348
0.8714507 0.3431275 0.8793859
0.9845194 0.1436575 1.100587
0.9145484 0.05361546 1.166043
0.6623373 -0.05318855 1.158575
0.6982997 0.1814326 1.026461
0.8124967 0.3258952 0.8982101
0.7696726 0.02052224 1.131494
0.7003449 0.01895629 1.117964
0.5835409 -0.01663395 1.127352
0.9598557 0.1795267 1.079074
0.6869476 0.1843717 1.007545
0.5881048 0.5076302 0.772505
0.8636118 0.446166 0.862829
1.034438 0.232353 1.074636
0.8819162 0.3914225 0.8339102
0.79227 0.06809815 1.12056
0.5855247 0.504541 0.7778727
0.7749343 0.05044125 1.108007
0.2362718 0.02491127 1.044623
0.9990348 0.1938194 1.061471
0.9669293 0.1084745 1.11897
0.7732339 0.3581957 0.7863244
0.4952698 0.5868596 0.7012038
0.3533963 0.2767163 0.9027319
0.3067811 0.2920288 0.8952003
0.3465917 0.2733376 0.9158039
0.8356518 0.3714485 0.8705811
0.2575442 0.2046899 0.8827472
0.9698044 0.2048597 1.061448
0.6621498 -0.005078326 1.131969
0.181497 0.034543 1.027695
0.8583317 -0.1071471 1.261354
0.7827005 0.3524804 0.893215
0.4108223 0.07942558 1.035181
0.6902572 -0.01157657 1.137293
0.7877411 0.1931474 1.050191
0.9605235 0.178289 1.080701
0.4518581 -0.06571123 1.145274
0.2971361 0.2973078 0.8721641
0.476863 0.04690509 1.064689
0.4866431 -0.07495836 1.159255
0.5785975 0.05895328 1.074528
0.7311103 -0.1281294 1.252598
0.9319666 0.03434246 1.167345
0.8493518 0.3467194 0.8750731
0.3087452 0.04191538 1.045149
0.5862034 -0.01478414 1.124623
0.7015174 0.1712261 1.053966
0.3615063 -0.006607094 1.084033
0.8922491 -0.05083688 1.227666
0.9983631 0.1845303 1.071809
0.7792333 0.3540752 0.8651191
0.464281 -0.02623928 1.110044
0.2523875 -0.0369052 1.099903
0.6412516 0.05159703 1.086107
0.7241874 0.1520143 1.069748
0.3087282 0.04321976 1.042313
0.7895095 0.07858384 1.091128
0.7839161 0.1960366 1.043207
0.7486059 0.1949179 1.0483
0.4795933 -0.02672 1.120783
0.5173911 0.3017744 0.9264829
0.4328842 -0.02901391 1.113579
0.5218246 -0.02053804 1.122297
0.6838822 -0.03322951 1.156876
0.8574674 0.2133454 1.052051
0.8689877 -0.0991005 1.269958
0.3665198 0.03402553 1.057814
0.7274653 0.01193169 1.131369
0.3110321 0.2779002 0.8947186
0.9542866 0.1611671 1.090866
0.7670153 0.01261319 1.151633
0.3928054 -0.008740105 1.090636
0.4209266 -0.0663866 1.150124
0.9501973 0.2141719 0.9316849
0.4783435 0.0464891 1.065394
0.6819886 0.1770642 1.067767
0.5788011 -0.08487938 1.179848
0.5452287 -0.08685369 1.187941
0.469158 0.001964249 1.095707
0.6640546 -0.02323389 1.144318
0.7866329 0.1932007 1.057905
0.5428303 0.3737092 0.8764724
0.3331628 -0.004569872 1.078209
0.6045365 -0.0501496 1.168422
0.3613807 -0.007237565 1.087091
0.9861858 0.2852662 0.978452
0.7030992 0.1756016 1.043905
0.8507217 0.3484657 0.8687659
0.8129454 0.327356 0.8938271
0.6856946 -0.06075679 1.175376
0.9884193 0.2750268 0.9979688
0.69095 -0.01084466 1.141775
0.8207959 0.3339976 0.9735486
0.8852482 0.390946 0.8925229
0.3673816 0.03500462 1.056171
0.2707737 -0.04439197 1.104692
0.524792 0.06675122 1.056654
1.030904 0.3506916 0.9926616
0.5265043 -0.05802945 1.165179
0.553845 0.4031908 0.8503683
0.3743197 -0.02220391 1.104084
0.9252899 0.08867748 1.137194
0.7990823 0.2513379 1.007883
1.007266 0.146012 1.137046
0.2946213 0.06857249 1.029199
0.2451735 0.008023451 1.058854
0.2981272 -0.01256732 1.101978
0.8433262 0.1606492 1.083485
0.4560992 0.07658949 1.040533
0.4417044 0.005508099 1.084731
0.8922542 0.3954949 0.9159384
0.6261549 0.1727413 1.100461
0.4010547 0.09150696 1.01708
0.6411958 -0.04977693 1.158832
0.6821505 -0.08695051 1.213471
0.9927794 0.169786 1.081616
0.6541544 -0.07873054 1.193165
0.8887866 -0.2397576 1.363715
0.4333064 -0.06436846 1.138562
0.8361164 -0.1389419 1.270975
0.2065877 0.03027246 1.038449
0.4216012 -0.06410161 1.141057
0.6622785 -0.006587894 1.135715
0.4576935 0.07542022 1.038198
0.9577936 0.07493595 1.147622
0.548223 -0.03530718 1.135189
0.398899 -0.03906874 1.129001
0.3080681 -0.05932327 1.143034
0.5501361 -0.07724614 1.16639
0.2147384 0.008911053 1.06715
0.4784667 -0.02836907 1.122252
0.7063341 -0.05797609 1.180094
1.017469 -0.1649879 1.250951
0.5993295 -0.04695016 1.15265
0.963651 0.3038904 0.9021282
0.3922995 -0.03340069 1.124083
0.398943 -0.03665447 1.126967
0.3864511 -0.2238751 1.310162
0.9457149 0.03502463 1.147766
0.8595255 0.2086347 1.037862
0.3202841 -0.05170165 1.117473
0.2693335 -0.01902915 1.094828
0.3682109 0.1936416 1.118134
0.9606935 -0.1779981 1.185215
0.9599363 -0.1810454 1.190569
0.3961772 -0.2196829 1.288872
0.9592911 -0.178678 1.18914
0.8690648 0.1543551 1.086977
0.6556249 -0.03096221 1.150602
0.4959567 -0.06811411 1.162809
0.657811 0.1673823 1.039676
0.6101675 -0.08624145 1.192389
0.498153 -0.2554957 1.303219
0.8763377 -0.04480249 1.224516
0.4739825 0.1562197 0.9855741
0.6568655 -0.05047418 1.159142
0.838847 0.1172967 1.115048
0.7796817 -0.3132538 1.390482
0.4975366 -0.2567419 1.304694
0.5280826 -0.05332927 1.160545
0.7986237 0.05773479 1.117668
0.8389167 0.1177806 1.115317
0.9643204 -0.1725902 1.125702
0.7367461 0.04036203 1.114867
0.5940301 -0.04952326 1.162639
0.4533607 0.07511777 1.041494
0.4982573 -0.004372057 1.112525
0.9465369 0.1463645 1.09568
0.5228831 0.3113349 0.9047982
0.8935204 -0.004812463 1.192634
0.5024064 0.2433644 0.9517524
0.2510161 -0.03809362 1.102487
0.8348963 -0.13754 1.274922
0.6283654 -0.0003516678 1.128016
0.7949257 -0.3983697 1.468425
0.5446972 -0.07937898 1.169262
0.248474 -0.03766795 1.10299
0.8218896 -0.1948015 1.323711
0.7844636 -0.3325767 1.413003
0.7982529 0.05847152 1.127009
0.9442524 0.03214009 1.158435
0.7952849 -0.3413095 1.428373
0.4515041 0.07683609 1.043913
0.427773 0.07958227 1.012628
0.8271063 -0.1859181 1.311896
0.7815299 0.05529537 1.180092
0.7181253 -0.01435126 1.144583
0.8720106 -0.07310169 1.208278
0.8238589 -0.06890087 1.621257
0.6635504 -0.006030528 1.131109
0.6262269 0.00163717 1.125552
0.4520668 0.07428657 1.042569
1.035163 -0.3047883 1.243201
0.7694566 0.02135176 1.132157
0.6677198 -0.005396102 1.125727
0.8967654 0.01888596 1.226659
0.9460222 -0.1494453 1.371367
0.6851742 -0.02242012 1.077667
0.5435051 -0.1334856 1.252918
0.04443463 -0.67632 1.63371
1.022593 -0.3666442 1.236314
0.8429765 -0.3682913 1.419101
0.3384078 -0.001490473 1.073261
0.7982616 0.0587786 1.135371
0.307344 -0.04176681 1.104804
0.795536 0.1940613 1.042081
0.7956005 0.1923022 1.038374
0.9811361 -0.376223 1.258834
0.7799634 -0.4928498 1.54623
1.073917 -0.4162209 1.326188
0.2517422 -0.4540542 1.460543
0.1261873 -0.4204936 1.365014
0.9830012 -0.3832555 1.275185
0.613088 -0.02330292 1.135296
0.9983017 -0.1460531 1.192618
0.2497856 -0.4544148 1.462079
0.795862 -0.3974622 1.465706
0.6259778 0.002312465 1.127123
0.8991174 0.01846476 1.177395
1.00212 -0.3137527 1.22138
0.2511043 -0.4531564 1.462532
0.8324776 -0.3941602 1.484656
1.001057 -0.3159007 1.216188
0.422462 -0.08018534 1.160058
0.4726863 0.04459472 1.072846
0.7181724 -0.01435453 1.146091
0.9442453 -0.1031518 1.284316
0.01534333 -0.6521301 1.609481
0.2556773 -0.3173349 1.327777
0.7089489 -0.03870496 1.170837
1.043075 -0.3057548 1.237127
0.9470125 -0.1223294 1.257079
0.799414 -0.3912528 1.461385
0.9602458 -0.2037249 1.173988
1.158673 -0.3258957 1.643233
1.081896 -0.1940995 1.351363
0.7810461 -0.3051512 1.367947
0.9327691 0.1005898 1.12163
0.7543796 -0.07794839 1.20254
1.121509 -0.2445904 1.373804
0.9332926 0.1000037 1.108236
1.025237 -0.3044517 1.234928
1.09487 -0.4528866 1.382163
1.094774 -0.4518931 1.381158
1.103905 -0.4915879 1.459228
0.5672874 -0.5111351 1.287357
0.6606995 -0.006798901 1.136391
1.082798 -0.3321657 1.304368
1.02222 -0.3559368 1.211498
1.078304 -0.4580638 1.406884
1.076004 -0.3040802 1.23367
1.069139 -0.441555 1.371408
0.9692062 -0.1360135 1.06605
0.7801684 -0.4914612 1.575921
0.8764415 -0.05478249 1.217255
1.026508 -0.3043235 1.234002
0.7262031 -0.1314027 1.246432
0.9238159 -0.5250602 1.381192
0.8529699 -0.1100153 1.27575
0.9319712 0.1020285 1.137228
0.5780385 -0.5750841 1.458723
0.257668 -0.05025042 1.157368
0.9184246 -0.5741733 1.469902
0.9058218 -0.4916773 1.410696
0.5795625 -0.581066 1.46593
0.709778 -0.03759358 1.166969
1.033937 -0.3014542 1.224658
0.8003594 -0.3368094 1.431328
1.020135 -0.1142315 1.287931
0.3307154 -0.05190378 1.115937
0.9999411 -0.3153495 1.22665
0.5254166 0.06802382 1.054655
0.6399238 0.0509731 1.086326
0.2244655 -0.3173312 1.352839
0.7526312 -0.07775682 1.206163
0.2539253 -0.4516083 1.453727
0.9054145 -0.5129446 1.468202
0.5924485 -0.07637296 1.174766
0.1067069 -0.7152341 1.624147
0.3242923 0.01527556 1.064225
0.3448252 -0.1892736 1.24254
0.4330494 -0.6911258 1.595195
0.7854272 -0.02083241 1.213014
0.6202051 -0.4164673 1.469911
0.5133058 -0.5001733 1.581644
0.06301806 -0.6577122 1.601488
0.4356846 -0.6899818 1.586235
0.8577832 -0.5665463 1.450621
0.855267 -0.4305695 1.333841
0.024828 -0.3944493 1.394869
0.4088579 -0.4455605 1.011943
0.07320032 -0.6441119 1.578009
0.6119863 -0.586433 1.381867
0.4756453 -0.2761918 1.305472
0.03627817 -0.6689671 1.634327
0.3243915 0.01623415 1.065081
0.6357574 -0.5873187 1.494248
0.8518966 -0.4327705 1.342974
0.5564097 -0.5139469 1.565844
0.8007062 -0.3367001 1.431511
0.9218831 -0.5459588 1.419573
-0.2148457 -0.4539811 1.419206
0.1047104 -0.4278822 1.395474
-0.2318984 -0.1810421 1.160444
-0.2188184 -0.4188318 1.361553
0.8707618 -0.5146615 1.404692
-0.2322216 -0.1808114 1.154616
0.7980493 -0.4010287 1.470661
0.4917997 -0.2659844 1.315639
0.4046116 -0.7251377 1.649395
0.3515143 -0.3123001 1.335755
0.5286455 -0.5147271 1.599414
0.6181952 -0.4206549 1.478979
-0.4127793 -0.4265195 1.341493
0.605929 -0.08338936 1.196295
0.5264634 -0.2253815 1.315274
0.4145394 -0.2249313 1.289714
0.08419761 0.005971496 1.048838
0.3249009 0.01664859 1.063378
0.42071 -0.5257642 1.592452
0.2283454 -0.1154687 1.194147
0.40788 -0.4459092 1.012396
-0.009620134 -0.4035562 0.9001445
0.4635721 -0.4518789 1.026159
0.07955214 0.01062577 1.044537
0.1171935 0.06706358 0.9941663
0.1816318 0.1097774 0.9712536
0.1220263 -0.4062133 1.373607
0.6495093 -0.6157922 1.448567
0.5304734 -0.2364651 1.329051
-0.6468272 -0.4139954 1.301395
0.2434253 -0.3227067 1.339014
0.5372328 -0.23763 1.318204
0.8546047 -0.1108951 1.267499
0.3818203 0.00639402 1.079396
0.5986198 -0.5396118 1.417788
0.6087303 -0.0424795 1.149485
0.556174 -0.2596083 1.314958
0.3822692 -0.05495967 1.133755
0.6961417 -0.49119 1.528851
0.3809204 -0.05388955 1.133059
0.2124275 -0.3304076 1.375793
-0.597573 -0.4290572 1.330321
-0.6412781 -0.4123143 1.298053
0.4478233 -0.4577978 1.041038
0.7142483 -0.0570986 1.164474
0.3945335 -0.06066706 1.142357
0.38283 -0.09646332 1.212828
0.4948188 -0.2639681 1.311886
0.5092867 -0.07267596 1.168806
-0.1416548 -0.4421754 1.355637
0.4947741 -0.2582734 1.307021
0.4078815 -0.4454584 1.011415
0.9685541 -0.1721283 1.151022
0.9572246 -0.332571 1.258225
0.5126415 -0.1653533 1.271989
-0.6122596 -0.390878 1.306169
0.9430749 -0.1095275 1.290426
0.3311565 -0.2700474 1.345462
0.6358453 -0.5605482 1.338109
-0.4084494 -0.553703 1.387103
0.3959253 -0.4495633 1.023056
0.1410133 -0.4087803 1.388894
0.7490357 -0.4896558 1.496974
-0.1995493 -0.03864589 1.078233
0.8341055 -0.1575543 1.286086
0.3955848 -0.03640516 1.118481
-0.5687243 -0.4208098 1.31779
0.42096 0.0009720488 1.0764
-0.6528267 -0.3409313 1.281649
0.5655568 -0.03615675 1.120652
0.5229145 -0.5536134 1.621406
0.7529181 -0.07742709 1.207347
0.2520798 -0.3185347 1.331895
0.1326811 0.06508889 0.9891761
0.6369749 -0.5660996 1.505235
-0.01868038 -0.4096001 1.258388
0.06473181 -0.5249707 1.274552
0.56286 -0.04046385 1.151814
0.8278694 -0.1214371 1.333849
-0.4112174 -0.4602881 1.370718
0.3286946 -0.2628754 1.334355
0.399269 -0.2168317 1.279673
-0.04509288 -0.3772349 0.924047
0.6890476 -0.5017092 1.543523
0.4470052 -0.285971 1.321891
0.5521837 -0.5362131 1.554699
0.6491302 -0.5587538 1.479493
-0.3637471 -0.4447696 1.338364
-0.2692813 -0.1772512 1.183333
1.006203 -0.3090823 1.214152
0.4337915 -0.3177454 1.365311
0.7235376 -0.1814023 1.308685
0.437212 -0.2384566 1.262348
0.6947075 -0.4922226 1.535228
0.6909412 -0.4975742 1.539854
0.7385775 -0.2046514 1.340133
0.7351628 -0.2103426 1.30848
0.7934237 -0.3966399 1.47407
0.8265282 -0.4798398 1.190481
0.3789467 -0.1005682 1.224108
0.6543652 -0.1907424 1.335275
0.9567043 -0.3324264 1.256745
0.8279882 -0.6160136 1.529139
-0.23443 -0.1794208 1.165302
0.1076011 -0.4655099 1.144032
-0.5217589 -0.3870558 1.349918
0.859172 -0.5340347 1.446561
0.8463121 -0.1165814 1.281816
-0.4942022 -0.3791493 1.324499
0.6843833 -0.03340726 1.158043
0.3036526 -0.4732132 1.54206
0.7796416 -0.3285064 1.417632
0.5392596 -0.2413911 1.3218
0.6592936 -0.1826133 1.30708
0.07983447 0.01182478 1.043432
0.2253418 -0.4315462 1.073724
0.8439875 -0.113917 1.29241
0.8659283 -0.5217101 1.451937
0.442366 -0.05866487 1.137625
-0.1156405 -0.08924462 1.060173
0.8199397 -0.2119816 1.306054
0.4687347 -0.2792101 1.309683
0.3271904 -0.2713031 1.34265
0.7799019 -0.5109023 1.311673
0.7819196 -0.3064152 1.37724
0.9587879 -0.3350084 1.230124
0.4569089 -0.2297324 1.294576
0.8859788 -0.4144854 1.31237
-0.4212407 -0.3533093 1.394436
0.6228414 -0.4223316 1.467942
0.1295978 -0.3498211 1.347232
0.2893719 -0.4305306 1.22513
0.3290346 -0.4252359 1.37065
0.3417208 -0.3162812 1.331994
-0.2367861 -0.1497368 1.041287
0.1303707 -0.02280227 1.081887
-0.2133371 -0.3830571 1.356557
-0.05708633 -0.4312022 1.324551
-0.2080773 -0.3569974 1.281883
0.1572787 -0.02823049 1.061756
0.6505905 -0.1414355 1.274642
0.3985468 -0.2066038 1.323229
0.4104998 -0.08051799 1.152305
0.6396232 -0.5440689 0.972894
0.5171257 -0.5567638 0.9038426
0.8453332 -0.4915036 1.472756
0.5178249 -0.5566855 0.904142
0.3453377 -0.1751455 1.251707
0.4292062 -0.2361675 1.269263
0.8502553 -0.3941243 1.382145
0.6685539 -0.1939011 1.283937
0.4113572 -0.4458827 1.014209
0.5507941 -0.5009727 1.437161
-0.4988588 -0.3771539 1.317231
0.6195724 -0.4195152 1.478285
0.2299397 -0.3070961 1.33434
0.4967537 -0.06741539 1.150431
0.4430313 -0.3195483 1.364564
-0.4395262 -0.3545693 1.413671
0.8756117 -0.4825507 1.470842
0.9070133 -0.5157616 1.483754
0.1783335 -0.02684205 1.072014
0.9478546 -0.2170246 1.209278
0.8453771 -0.4906428 1.458998
-0.432794 -0.3536033 1.402139
0.7161472 -0.1840209 1.319003
0.8414654 -0.4894039 1.458367
0.4306674 -0.1898347 1.285091
0.8313293 -0.4783117 1.265252
0.7470624 -0.5726349 1.633917
0.7480402 -0.5222883 1.451987
0.6210121 -0.4184544 1.467962
0.9608648 -0.182179 1.169981
0.542438 -0.1326948 1.25428
0.2923144 -0.4452631 1.00047
0.168702 -0.229444 1.271415
0.8476254 -0.4882378 1.441432
0.1215345 -0.3453513 1.356025
0.4673508 -0.4521646 1.022317
0.8220274 -0.5171331 1.445316
0.8633545 -0.5134296 1.522665
0.9474503 -0.377783 1.303653
0.880841 -0.4827326 1.471232
0.7270236 -0.4846642 1.433464
0.3802997 -0.3899531 1.395053
0.898572 -0.4879823 1.334281
0.8934297 -0.4112577 1.282804
0.8661201 -0.4309624 1.401499
0.3472744 -0.1777486 1.237135
0.8326797 -0.1480497 1.303266
0.2499585 -0.3761069 1.425374
0.4070714 -0.4438369 1.027676
0.9360678 -0.4239251 1.324137
0.1394248 -0.3398013 1.330095
0.4187984 -0.2937181 1.330513
0.9855186 -0.3885592 1.242849
0.4689356 -0.4520777 1.020473
0.9398887 -0.3292509 1.241301
0.9205582 -0.4207646 1.32615
0.2717152 -0.3467699 1.449306
0.3564312 -0.294715 1.351415
0.4048219 -0.2242668 1.277025
0.4014866 -0.2182255 1.275412
0.4086446 -0.2309545 1.307757
0.2950816 -0.3483689 1.40131
0.4187223 -0.2932344 1.329675
0.4058872 -0.1972612 1.289771
0.9245602 -0.3296513 1.243975
0.9104222 -0.5513479 1.068956
0.9112424 -0.5487643 1.045615
0.90973 -0.5562525 1.11389
0.477394 -0.2452333 1.284472
0.441911 -0.2688226 1.297194
0.9086136 -0.5484436 1.053392
0.5035412 -0.5977429 0.8306966
0.5027468 -0.5982567 0.8303623
0.464123 -0.2753316 1.260836
0.9088989 -0.546795 1.057618
0.2104656 -0.325668 1.395857
-0.1779968 -0.4247102 1.56637
0.2531457 -0.3395647 1.507126
0.8071404 -0.5388528 1.535895
-2.545664e-05 -0.4225318 1.345039
0.3271779 -0.4531828 1.14319
0.9724141 -0.5353221 1.613025
0.3555446 -0.2949603 1.353157
0.966571 -0.1837824 1.159026
0.9707052 -0.4312299 1.352206
0.963438 -0.4870888 1.546219
0.8521077 -0.3984894 1.366196
0.413963 -0.2934186 1.341488
0.9652653 -0.3431601 1.625722
0.01245079 -0.2639721 1.474244
0.3499658 -0.3080128 1.34822
0.3180817 -0.2815522 1.334363
0.3821466 -0.3893092 1.406397
0.7434888 -0.5058472 1.544525
0.827309 -0.215281 1.223771
0.4390023 -0.2403946 1.252933
0.8471613 -0.3560072 1.392609
0.146941 -0.2365077 1.289652
0.445141 -0.2848519 1.320297
0.4403875 -0.2198617 1.23309
0.3286182 -0.3465699 1.379726
0.8744195 -0.4279703 1.415954
0.2772787 -0.169871 1.250049
0.418704 -0.2567623 1.29934
0.4636577 -0.2353505 1.289269
0.9439386 -0.6673792 0.9291775
0.9349881 -0.4701121 1.072279
0.2421971 -0.5188684 1.652009
0.9533505 -0.6944838 1.001687
0.4993639 -0.6014836 0.8351396
0.9998368 -0.3933495 1.029577
1.022933 -0.4391475 1.368666
0.8028589 -0.2504329 1.329578
0.4907456 -0.26004 1.320563
1.039991 -0.3920881 1.318304
0.8815309 -0.4772509 1.513222
0.9641069 -0.4315682 1.499255
1.016835 -0.4397441 1.338611
0.9869552 -0.4345111 1.36403
0.5185042 -0.5565245 0.9008803
0.8494022 -0.3981057 1.383298
0.8443004 -0.4805055 1.731402
0.9675035 -0.3287238 1.269652
0.9840856 -0.3817638 1.27836
0.2821978 -0.3420239 1.457694
0.2761798 -0.3996906 1.363183
0.3355178 -0.1866662 1.260794
0.6952275 -0.3933897 1.468175
0.8910517 -0.4514809 1.33737
0.8570531 -0.3173947 1.3906
0.8374058 -0.4941939 1.480146
0.033047 -0.4136186 1.298196
0.8948216 -0.516529 1.123302
0.9287359 -0.4754259 1.127313
0.2428839 -0.2014751 1.207343
0.4340706 -0.2371276 1.266759
1.021789 -0.4405017 1.376763
0.8755689 -0.4424397 1.388939
0.7912056 -0.2781103 1.331371
0.7778791 -0.326531 1.397225
0.1950524 -0.1874689 1.301267
1.034415 -0.3935666 1.332262
0.8119923 -0.5344468 1.480875
0.5089955 -0.4671725 1.430949
0.8245943 -0.4937788 1.437335
0.9176441 -0.4712362 1.480911
0.9437389 -0.587615 1.289568
1.010216 -0.4375584 1.279132
0.276002 -0.2071588 1.28256
0.7793761 -0.4920521 1.540241
0.4383563 -0.3193888 1.367682
0.5080383 -0.469025 1.447049
0.1989041 -0.4076894 1.500167
0.7302361 -0.5436454 1.637996
0.930503 -0.5447825 1.069576
0.3511429 -0.4224252 1.42783
0.9412163 -0.514558 1.306527
0.9668137 -0.4892489 1.577958
0.4186516 -0.2934917 1.328826
0.9452365 -0.378382 1.280634
0.9603791 -0.3980081 1.23844
0.4278361 -0.5718805 0.8363485
0.3413245 -0.1925182 1.241577
0.7551065 -0.528115 1.266495
0.8947437 -0.514728 1.145599
0.40492 -0.2299834 1.273568
0.3307686 -0.2778809 1.328953
0.8863203 -0.4141337 1.308854
0.5137757 -0.3231096 1.366091
0.8300595 -0.1804746 1.304689
0.9225131 -0.3267919 1.245614
0.3448218 -0.2739277 1.312451
0.9692698 -0.3666581 1.276377
0.4423631 -0.2692573 1.316277
0.9273817 -0.465316 1.332094
0.5176963 -0.5110924 1.414633
0.9457814 -0.2271023 1.163404
0.8924017 -0.508348 1.119991
0.5012434 -0.5989733 0.8338428
0.413358 -0.5772314 0.8535693
0.8872247 -0.4144478 1.316866
0.9546265 -0.3618978 1.288971
0.3273296 -0.1715594 1.289233
0.2853601 -0.3442598 1.373935
0.3383214 -0.4495037 1.15368
0.9202697 -0.421829 1.229654
0.4311942 -0.2606171 1.273358
0.7465773 -0.5003417 1.472065
0.882916 -0.4865276 1.5121
0.9583375 -0.3315358 1.253869
0.82368 -0.4993761 1.44574
0.9532619 -0.427375 1.327723
0.9338363 -0.5451691 1.057853
0.9771162 -0.4594645 1.42235
0.2124657 -0.3221496 1.392376
0.2301705 -0.4284536 1.391678
0.9183661 -0.4210847 1.324437
0.7344482 -0.5334774 1.534583
0.2633912 -0.3174672 1.323523
0.6231579 -0.5012195 1.463137
0.3778425 -0.2509339 1.289955
0.3062783 -0.4269119 0.9289418
0.9026898 -0.4503095 1.424571
0.6117226 -0.5056958 1.525959
0.2833688 -0.3701664 1.365445
0.595339 -0.5122042 1.593867
0.8963464 -0.4405274 1.154103
0.3214645 -0.4414554 0.9479636
0.3435504 -0.3141277 1.383268
0.2541063 -0.3185408 1.336617
0.7881447 -0.3864921 1.444025
0.4469804 -0.2879077 1.332952
0.5288813 -0.2353351 1.352849
0.5470499 -0.2550149 1.323783
0.3445445 -0.2321186 1.377935
0.9538293 -0.3623896 1.291114
0.9254822 -0.2801667 1.190883
0.2401033 -0.3020886 1.335077
0.4458175 -0.2295946 1.293464
0.4245574 -0.2689021 1.296157
0.2643037 -0.2941142 1.359528
0.2595963 -0.290469 1.374732
0.3559786 -0.2927937 1.353348
0.8744328 -0.4442875 1.336899
0.3272566 -0.1912709 1.270127
0.9036811 -0.4165516 1.310184
0.8390373 -0.4753408 1.508241
0.6177918 -0.4164044 1.478452
0.7266181 -0.5293499 1.525169
0.8161141 -0.5338916 1.500137
0.6263626 -0.4780472 1.474291
0.8386221 -0.4779332 1.56095
0.7342936 -0.4926533 1.501056
0.1984595 -0.4003934 1.411584
0.2610512 -0.1735673 1.251992
0.4630982 -0.1865898 1.23676
0.5279585 -0.2302596 1.319397
0.5373197 -0.2412016 1.326823
0.7421043 -0.5228111 1.428939
0.1186429 -0.4449705 1.419816
0.8084663 -0.5341289 1.516504
0.5058213 -0.4789282 1.490179
0.8925821 -0.3982114 1.281771
0.3384179 -0.2604645 1.320108
0.3147885 -0.4318285 1.501616
0.253163 -0.3003744 1.314135
0.2568077 -0.302008 1.304786
0.4177056 -0.2938453 1.333926
0.9375784 -0.4249706 1.331589
0.2539142 -0.1819309 1.243714
0.7784488 -0.3067689 1.393656
0.286189 -0.1723678 1.228023
0.3972113 -0.2131517 1.278281
0.2778561 -0.2433944 1.252381
0.7375497 -0.5012555 1.529322
0.7205544 -0.5480393 1.452599
0.2881303 -0.302859 1.285291
0.3650245 -0.387267 1.455639
0.8372707 -0.47516 1.531445
0.7979502 -0.3381534 1.431913
0.8337733 -0.47342 1.486127
0.7208918 -0.5084987 1.396197
0.4315161 -0.4803199 1.20298
0.2539169 -0.3915465 1.433957
0.8536958 -0.3915434 1.371622
0.1369729 -0.4215426 1.388872
0.8805174 -0.476254 1.471321
0.5039887 -0.4661056 1.441418
0.3498653 -0.1968266 1.222465
0.3790961 -0.2011742 1.300059
0.811728 -0.5344704 1.491154
0.2211704 -0.4020102 1.364373
0.169407 -0.3889677 1.458582
0.1133144 -0.4211514 1.432343
0.9185342 -0.4721218 1.503961
0.9386916 -0.5001389 1.627401
0.9281846 -0.4903232 1.511539
0.1371388 -0.3422137 1.336661
-0.1917907 -0.3873616 1.325699
0.7289134 -0.5153093 1.532377
0.8941085 -0.4983011 1.475468
0.6243937 -0.4785191 1.462559
-0.0323501 -0.4016034 1.315992
0.1179928 -0.4283703 1.145543
0.5009554 -0.4850354 1.454698
0.2822221 -0.4473144 1.484552
-0.05173062 -0.3649509 1.335074
0.804495 -0.2370722 1.336201
-0.02843811 -0.4025254 1.311211
0.04855335 -0.427019 1.245531
0.3326053 -0.3839076 1.389377
0.870275 -0.4291836 1.350431
0.4202145 -0.4593828 1.463107
0.3061685 -0.3640631 1.54307
0.119107 -0.4216679 1.151516
0.07260437 -0.4076215 1.406626
0.3949902 -0.2390841 1.287487
0.1208672 -0.4015882 1.327487
0.3596435 -0.246759 1.706588
0.2563415 -0.2503313 1.283806
0.7847918 -0.3770421 1.446423
0.9346181 -0.4919173 1.554408
0.6213961 -0.5069097 1.488486
0.7769158 -0.4931694 1.537666
0.4930687 -0.2750632 1.33109
0.2255706 -0.3130062 1.343341
0.1004269 -0.3896921 1.383678
0.3025798 -0.3526531 1.389506
0.3077229 -0.5510015 0.8263246
0.6259807 -0.4738863 1.466986
0.03822144 -0.3990861 1.517186
0.3282844 -0.2834451 1.318056
0.08066296 -0.394856 1.437311
0.4407114 -0.3203775 1.357813
0.3252413 -0.3692996 1.444598
0.2712843 -0.3917933 1.38043
0.3063543 -0.3513996 1.408853
0.139012 -0.4496807 1.384634
-0.03234008 -0.4345823 1.298395
0.2498879 -0.4420988 1.416445
0.7096043 -0.4857821 1.551376
0.1394392 -0.3808058 1.486889
0.3158653 -0.3093712 1.366453
0.7869489 -0.2896678 1.357252
0.6213414 -0.5065158 1.490927
0.7024046 -0.4843981 1.513451
0.6197873 -0.507452 1.503317
0.8756496 -0.46561 1.37855
0.1325582 -0.4068656 1.002598
-0.04620774 -0.7625573 1.601487
0.1324519 -0.4184436 1.371185
0.397792 -0.4591562 1.415787
0.6128379 -0.5010105 1.48468
0.4111657 -0.3889351 1.40975
-0.3060187 -0.349728 1.258886
0.7329696 -0.5096608 1.502545
0.2774033 -0.4391936 1.476699
0.4435546 -0.2297571 1.280333
-0.4460256 -0.3439341 1.414916
0.1932499 -0.4027426 1.245613
0.3528115 -0.3085544 1.337335
0.4705021 -0.4551658 1.044108
0.4013571 -0.2250556 1.251585
0.3278304 -0.5662514 0.8253966
0.3884545 -0.2077024 1.269918
0.3422632 -0.3037532 1.389959
0.2825128 -0.3659803 1.451141
0.09621826 -0.3870221 1.419651
0.1332556 -0.3395825 1.344833
0.04638885 -0.3682944 1.375574
-0.2157366 -0.1094874 1.123773
0.4449086 -0.2889388 1.323652
0.4367187 -0.2366826 1.271317
-0.3329476 -0.3518476 1.295569
0.1385264 -0.4113904 1.490622
-0.2364977 -0.3913684 1.248313
0.2645902 -0.4251351 1.459387
-0.4329544 -0.3947234 1.47816
0.4652342 -0.2408795 1.273617
0.2799308 -0.3553854 1.364526
0.1516497 -0.4299333 1.379232
-0.5236623 -0.3904264 1.341952
-0.2557461 -0.3860927 1.267927
-0.5227172 -0.3919857 1.340777
-0.0362641 -0.3586167 1.343913
0.6183581 -0.4129778 1.464681
0.357452 -0.1605912 1.303326
0.3610632 -0.4208815 1.285424
-0.03588266 -0.357072 1.357684
0.4057415 -0.4589669 1.413551
0.25141 -0.3173702 1.383018
-0.2318812 -0.2266818 1.109819
0.07143225 -0.3819353 1.281164
0.7013248 -0.4737404 1.468082
-0.2434879 -0.1871095 1.169138
0.2711018 -0.3769146 1.392231
0.2249982 -0.3492409 1.376481
0.6203295 -0.4746489 1.443208
0.02843097 -0.3565777 1.346665
0.3379917 -0.2733693 1.334419
0.2769747 -0.1683739 1.244926
0.5251414 -0.2291202 1.27888
0.7008173 -0.4848385 1.518734
0.2686346 -0.3840047 1.391916
-0.4059744 -0.4292912 1.440559
0.252732 -0.2982933 1.362599
0.007896323 -0.4318605 1.309467
0.7302632 -0.5250605 1.480584
0.4100834 -0.3871856 1.36895
-0.4949836 -0.3770085 1.379043
0.2054068 -0.3377198 1.376763
0.4168165 -0.4488075 1.014424
0.2090895 -0.3438325 1.360965
0.2821062 -0.3495481 1.405787
0.2316322 -0.1956606 1.236902
0.6196628 -0.4674556 1.481935
0.4113034 -0.4453234 1.008294
0.2446088 -0.2623741 1.290366
-0.5798934 -0.4146918 1.330698
0.27623 -0.4396849 1.437684
-0.5635955 -0.4230807 1.331898
0.2140669 -0.4017338 1.344173
0.04020092 -0.2031278 1.227124
0.5753387 -0.3986319 1.462534
-0.03868113 -0.3777393 1.323106
-0.07296355 -0.3798094 1.349984
0.261217 -0.4416706 1.416553
-0.2679403 -0.1204143 1.027859
-0.5811144 -0.417286 1.331098
0.146414 -0.403521 1.378861
0.2864396 -0.3643693 1.449853
0.03707286 -0.2008244 1.238691
0.4222942 -0.293057 1.33894
-0.1216092 -0.378815 1.384666
0.07689559 -0.3591497 1.258505
0.259049 -0.3203315 1.348939
0.3234792 -0.1894153 1.271996
0.2454352 -0.2369358 1.344772
-0.02971875 -0.3544022 1.352253
-0.3480995 -0.3931298 1.142172
0.2338363 -0.2785099 1.385055
0.1005615 -0.3770675 1.426651
-0.0352854 -0.416282 1.427271
0.495296 -0.2671976 1.292494
-0.242731 -0.4169322 1.276491
0.1573348 -0.433495 1.375265
0.2881484 -0.3505332 1.371933
0.5165944 -0.4486375 1.229532
0.2747848 -0.2015537 1.375167
0.3459074 -0.1791524 1.255378
0.2858127 -0.3473027 1.369146
0.2649561 -0.1773066 1.235532
0.06734176 -0.4123955 1.2001
0.2187746 -0.3155599 1.355389
0.3328248 -0.2856404 1.356766
-0.02679282 -0.4168453 1.404626
0.3085103 -0.5499408 0.8248243
0.4451876 -0.2901221 1.323825
-0.03784236 -0.358814 1.345062
0.527214 -0.3101635 1.363581
0.2104233 -0.3402504 1.372712
0.2222562 -0.3341571 1.375597
0.2695865 -0.3916348 1.377188
0.2163464 -0.582552 0.726376
0.5246543 -0.2336491 1.288984
0.1501905 -0.3621952 1.313164
0.2398339 -0.3289812 1.32628
0.5133822 -0.1688192 1.271728
0.2375512 -0.2690068 1.569818
0.0831434 -0.3852367 1.266061
0.3365619 -0.1864104 1.258085
0.4486866 -0.2705337 1.310219
0.4414482 -0.3106707 1.471068
0.04420304 -0.3454279 1.369624
0.07612145 -0.377272 1.336294
0.1405112 -0.3450085 1.315845
0.5181521 -0.5564581 0.9037836
-0.009324402 -0.3267342 1.536201
0.3105515 -0.3512993 1.363252
0.4482633 -0.2772262 1.308527
0.2286761 -0.3159061 1.326599
0.6277964 -0.4554125 1.458953
-0.5246848 -0.42022 1.267842
0.5007331 -0.4412601 1.370425
0.1167017 -0.3887463 1.250815
0.2833841 -0.3520929 1.377691
0.5180453 -0.218325 1.324322
0.3326674 -0.2938371 1.293186
-0.6898406 -0.4446566 1.380771
0.159962 -0.2385492 1.280821
0.240998 -0.3268505 1.342429
-0.631969 -0.3988871 1.310602
-0.5122285 -0.4257413 1.379047
0.1527411 -0.2497662 1.28591
0.2931699 -0.211124 1.295609
0.4504234 -0.4422125 0.9508756
-0.04893013 -0.3596606 1.318194
0.3075335 -0.5509836 0.830552
-0.01206934 -0.3318418 1.303093
0.09054778 -0.3885883 1.495626
0.2776241 -0.4498811 1.397403
0.1730617 -0.3983115 1.442688
0.5396447 -0.471915 1.457101
0.3605786 -0.4172724 1.347441
0.289405 -0.4164625 1.370775
0.3348664 -0.1884155 1.250102
0.1355883 -0.272832 1.312977
0.3072428 -0.5512574 0.8324127
0.04018438 -0.3629282 1.376884
0.3558937 -0.4169838 1.417336
0.5177265 -0.5551446 0.9032978
0.19842 -0.3991049 1.452973
0.02643125 -0.3877364 1.767732
0.2600471 -0.4432725 1.38622
0.6347526 -0.4799694 1.51034
0.1621972 -0.2352931 1.276151
0.1358686 -0.3460909 1.351189
0.6253553 -0.4564225 1.445558
0.5021988 -0.4417505 1.401849
-0.0371164 -0.3953563 1.338546
0.4515443 -0.4324963 0.981432
0.1600337 -0.4372297 1.362335
0.4696621 -0.4422642 1.693227
0.02500338 -0.4180029 1.348557
-0.2073153 -0.4584429 1.06035
0.1675041 -0.3911915 1.487074
0.04556746 -0.416219 1.276737
0.2536345 -0.618396 0.7327227
0.1486834 -0.2294099 1.332613
0.235494 -0.2638857 1.329569
0.5380499 -0.2417737 1.359515
-0.06267291 -0.3720616 1.361528
-0.7374787 -0.4447887 1.369771
0.4187014 -0.387291 1.439386
-0.7973599 -0.4568051 1.451186
-0.4498287 -0.3791867 1.320345
-0.6801991 -0.4355581 1.353508
-0.713456 -0.4327556 1.423723
