# .PCD v.7 - Point Cloud Data file format
VERSION .7
FIELDS x y z
SIZE 4 4 4
TYPE F F F
COUNT 1 1 1
WIDTH 1549
HEIGHT 1
VIEWPOINT 0 0 0 1 0 0 0
POINTS 1549
DATA ascii
0.2421544 0.1434969 0.7827256
0.1318706 0.1328057 0.8052098
0.2572907 0.05757697 0.6809499
0.313999 0.02329157 1.007144
0.2470102 0.1413053 0.7109562
0.2858026 0.03438914 0.7534352
0.3248076 0.02045081 0.8745989
0.3047886 0.01041164 0.9256205
0.2860796 -0.01881763 0.9057428
0.2843556 0.1095078 0.9440517
0.257917 0.08187575 0.67972
0.2704522 0.1553857 0.7541555
0.2428451 0.1638308 0.7654909
0.1381453 0.1473528 0.7591912
0.1274496 0.1421601 0.7893742
0.1597021 0.09816422 0.7859783
0.2463402 0.1104064 0.6895903
0.2219205 0.139302 0.7802313
0.3210728 0.0207566 0.8652405
0.2052331 0.1141071 0.7633663
0.2260564 0.0535174 0.699838
0.2528283 0.0477363 0.700398
0.2390963 0.1052638 0.7279118
0.2692755 0.09914245 0.7800875
0.2930203 0.01806482 0.7922408
0.2478942 0.05564731 0.6599044
0.1510139 0.08629733 0.7617085
0.223556 0.1197053 0.7899573
0.288178 0.1526718 0.8020473
0.1370216 0.1477301 0.7622375
0.2690947 -0.06762681 0.9358966
0.2914272 0.1332996 0.8058001
0.199352 0.04591159 0.6300908
0.02513235 -0.1449982 0.7736737
0.239586 -0.02451831 0.9608269
0.2213441 0.1380595 0.779687
0.3697662 0.04720411 1.125202
0.2396581 0.08943702 0.7091393
0.1975318 0.01137773 0.6469343
0.1113861 -0.05025448 0.5932667
0.2181959 0.1546001 0.708584
-0.00513113 0.01134003 0.09869146
0.3654151 0.0524195 1.090331
0.2037239 0.1223718 0.8106993
0.2004861 -0.07534544 0.9621747
0.2412568 -0.02391896 0.95859
0.1523856 0.0921353 0.8923706
0.2786641 0.1007181 0.9010367
0.2256288 0.1148761 0.6996233
0.2108986 0.1131881 0.7689469
0.3383379 0.07393841 1.022524
0.2923148 0.002130877 0.926506
0.3284439 -0.06056985 1.010492
0.3248753 -0.04940898 1.003811
0.275063 -0.1244994 0.9896316
0.2628887 0.07692062 0.9868723
0.2027794 -0.05235105 0.9476571
0.2253595 0.1415167 0.7109662
0.2316802 -0.07977021 0.9521354
0.1994661 0.1312295 0.7978921
0.2699554 0.029485 1.108039
0.3179125 0.1078988 0.9457452
0.2419522 -0.02277656 0.960052
0.274526 -0.003855999 0.9842753
0.1403664 -0.09095097 0.988655
0.1575476 -0.08578783 0.9293953
0.2104194 -0.05239063 0.9701794
0.3055093 0.04451995 1.095846
0.07327389 0.138956 0.8269092
0.2851289 0.01650639 0.8200271
0.06305104 -0.1668624 0.9628167
0.2368825 0.1191654 0.7254696
0.02265393 -0.1666888 0.9367473
0.2957098 0.1086095 0.8961022
0.07253093 -0.1839013 1.066065
0.09647386 0.1010804 0.9423407
0.1372885 0.07415375 1.09505
0.2024162 0.1150452 0.7873355
0.2813507 -0.05139638 0.9854975
0.3158876 -0.04997083 0.9807642
0.09918299 0.09878206 0.9551731
0.1602263 0.01377669 0.9086115
0.06526841 0.1013249 0.9498374
-0.2284729 0.2051133 0.6573371
0.2305026 0.1442826 0.7227926
0.05191923 -0.1135736 0.9655436
0.1347233 0.08215076 0.7901309
0.1789969 0.08275587 1.001925
0.1473143 -0.0918766 1.014085
0.2520951 -0.003369896 1.003013
-0.1895944 0.1668642 0.692374
0.06818433 0.09891752 0.9453731
-0.1969332 0.1710801 0.7132623
0.2603591 -0.05229371 0.9249795
0.1833451 0.04716465 1.12178
0.223784 0.06408264 1.006363
0.1814283 0.04519102 1.108631
-0.1995762 0.1717728 0.7096977
0.3397499 -0.2773844 1.52089
0.2267072 0.1214574 0.7413755
0.2748176 -0.0261292 0.9091611
0.3098774 0.009638485 0.944012
0.0219704 -0.1591012 1.05852
0.07498357 -0.1815309 1.079014
0.05677325 -0.05632176 0.9919148
0.1920875 0.04626391 1.189031
0.3117438 -0.2818473 1.6338
0.1637067 -0.03518587 1.036449
0.05048699 -0.1155279 0.9680827
0.2114886 0.1197843 0.8543597
0.5249318 -0.327312 1.783101
0.2828725 0.04741522 1.039189
0.1913172 -0.07617246 0.9877113
0.07029952 0.1192816 0.8908039
0.0249113 -0.1602563 1.043532
0.151745 -0.06671406 0.937986
0.1271895 0.003732234 1.225849
-0.2551121 0.1063965 0.9331881
0.2621899 -0.006584709 0.960939
0.018295 0.1513325 0.7721307
0.02495163 -0.123079 0.9862162
0.3712356 -0.3366767 1.932365
0.1426831 0.1513765 0.7755472
-0.06562871 0.1053851 0.9395548
0.2683045 0.05833997 0.9970938
0.09759598 0.0006819235 1.109588
0.2082027 0.1161615 0.7728635
-0.06319831 0.1052873 0.9160204
0.004197172 0.0423034 1.057618
0.200171 -0.007298339 1.048541
-0.1180599 0.1208507 0.8515013
0.1917948 -0.07735775 0.9952552
0.2370989 0.06728912 1.062111
0.2779018 0.03151717 1.145115
0.2032591 -0.07492033 0.9626868
0.2246846 0.1416958 0.7846092
0.1695722 -0.03249234 1.059731
-0.144095 0.1032186 0.9192692
0.0868338 0.1351648 0.8170264
0.03328946 0.1439462 0.7932903
-0.1875991 0.3147283 1.173456
0.07461534 0.1296033 0.852519
0.2296028 -0.07894137 0.9456325
0.2124316 -0.006357126 1.045852
-0.04806652 0.1077902 0.9194791
0.0303673 0.05571455 1.079557
-0.2245355 0.120747 0.872129
0.227501 -0.07741186 0.9385605
-0.3815569 0.03243982 1.117466
-0.3824681 0.0534116 1.083122
-0.3776877 0.03768327 1.069983
-0.3294913 0.04832591 1.029831
0.03507265 0.1568123 0.8743376
-0.3632533 0.06827306 1.040578
-0.344467 0.04874908 1.086563
-0.25722 0.1629715 0.8512927
-0.3836759 0.05205423 1.076705
-0.2026625 0.08282959 1.006948
-0.06827047 0.1193881 0.8643181
0.2583131 0.05894792 1.064743
-0.1294699 0.05686732 1.069667
-0.2248102 0.04357698 1.083416
0.3653691 -0.2911379 1.717535
0.02980803 -0.007914967 1.02869
-0.3438707 0.07433723 1.09198
-0.2586293 0.1069816 0.929089
-0.2163083 0.01300505 1.10739
-0.2237672 0.1187116 0.8688611
-0.4957425 0.2218093 1.962262
-0.2677243 0.05145263 0.9735644
-0.2902512 -0.2048838 1.21065
-0.1011788 0.06016242 1.061551
-0.2953394 -0.2094963 1.234012
0.1313504 0.06892882 1.057258
-0.249724 0.1038993 0.9423532
0.1430023 0.08556129 0.9682425
-0.2594326 -0.03196059 1.149968
-0.1504068 0.02198446 1.101336
-0.2510672 0.01674511 1.017189
-0.2299446 0.04609749 1.088966
-0.1692452 0.01933096 1.102436
-0.4018157 0.2991398 1.017303
0.0171272 0.1465855 0.7975574
-0.170916 0.09281059 1.095175
-0.227479 0.08175023 1.014495
0.2389148 -0.03376979 0.9874368
0.265838 -0.040132 0.950233
-0.1183458 0.06620733 1.026665
-0.2826377 0.02416657 1.191291
0.2495076 0.05632239 1.112467
0.00550631 0.1374621 0.8098593
-0.2417718 0.08920195 0.8078746
0.2214328 0.0598468 1.13823
-0.04657782 0.09102222 0.9563434
-0.07644183 0.03337895 1.075411
0.2003711 -0.07669921 0.9667975
-0.07715312 0.03546043 1.075683
0.03419506 0.1247853 0.8609839
-0.3016596 0.07574308 1.033706
-0.3841248 0.06677306 1.058257
-0.3082009 0.05975924 1.115656
-0.1472921 0.05653071 1.041682
-0.1553378 0.02341601 1.097602
0.2259621 0.1610251 0.7751158
0.02520528 0.04543633 1.064566
-0.09644632 0.001310032 1.082531
0.02766074 0.01179467 1.037829
-0.3354111 0.03164826 1.158938
-0.3248616 0.04721056 1.02567
-0.2659505 0.09948804 1.228677
0.2710001 0.03078155 1.303479
0.007693325 0.07184423 1.045082
0.24995 0.07142555 1.065122
-0.075367 0.004804632 1.075071
-0.4166812 0.1017212 1.468993
0.005551405 0.0399035 1.102786
0.1403406 0.1404175 0.7877232
0.1317771 0.06928409 1.057208
-0.3391973 0.08502457 1.006531
-0.007864589 0.09724388 0.9476443
0.1840417 0.05270615 1.123118
0.2670657 -0.122082 0.9680048
-0.2140941 -0.01322181 1.126769
0.1538742 0.1502351 0.9270789
-0.4583496 0.0662146 1.293898
0.2085803 0.1238733 0.8309959
0.2469206 0.05558639 1.107288
0.2870567 -0.001203674 1.013123
-0.405347 0.06670735 1.065601
-0.3235961 0.04786171 1.080378
0.3377692 0.04460811 1.102273
-0.306523 0.04403694 1.023809
0.1465652 0.08983017 0.7200633
-0.2230361 0.06197703 1.005489
0.211082 0.164398 0.686627
0.2603814 -0.05353235 0.9304003
0.2103121 -0.005857982 1.046976
0.2064658 0.1144908 0.7636664
-0.1797039 0.3009423 1.120099
0.05753198 -0.003258045 1.014205
0.3427223 0.04445888 1.110043
0.2259791 0.1620387 0.7750388
0.01107618 0.1139498 0.8902137
-0.2705084 0.09947132 0.9041804
0.158528 0.1045298 0.7944566
-0.1618033 -0.007860163 1.106158
0.1976289 0.1320555 0.7946608
0.2142531 0.02106464 1.066427
0.103107 0.003709065 1.044732
0.1496497 -0.09278324 1.015758
0.03066458 0.05712081 1.082845
-0.5613471 0.04332203 1.915942
0.3582937 0.009680828 1.087526
0.1315371 0.06955875 1.061005
-0.1478133 0.09920863 0.9374096
-0.1675157 0.1092372 0.9222836
-0.3068236 0.02268585 1.222665
0.2664777 -0.06689208 0.9392211
-0.2562879 -0.1060276 1.081132
-0.1022291 0.03060713 1.086707
0.3261676 0.02891742 1.032781
0.2019004 0.02232176 1.023124
0.126666 0.04642776 1.155031
-0.4089665 0.0405791 1.433913
0.356991 0.0501752 1.075636
0.1570296 -0.07000949 0.9709758
0.3158589 0.04607716 0.9573078
0.3348982 -0.05798259 1.031891
0.2178086 0.1139882 0.860323
0.06282037 -0.1656837 0.9556092
-0.04506426 0.117099 0.8465062
0.2397327 0.1252317 0.7745144
-0.1585625 0.1064941 0.9719443
0.1989712 0.133243 0.7997066
0.2037035 -0.05324983 0.9515388
-0.07590678 0.003283225 1.074446
-0.01933194 0.03810263 1.068136
0.2706842 -0.02954238 0.9141839
-0.1003125 0.03244104 1.084773
0.03214649 0.05597038 1.08389
0.235104 0.06709942 1.063665
0.2385389 0.1414847 0.7806352
0.1659815 -0.03498439 1.048255
-0.01560802 0.1206388 0.8679813
0.1267781 0.08905338 0.7675014
0.1368175 0.08097687 0.8632758
0.2270708 -0.04528423 1.000146
0.2701671 0.1352675 0.8179606
0.1398779 0.140555 0.7857654
0.3539418 -0.3130852 1.830561
0.05783773 0.1389288 0.8153434
0.2465898 0.156614 0.785252
0.1235843 0.08455932 0.7548152
-0.1388157 0.03933368 1.115923
0.008044564 0.04332859 1.069445
0.2415119 -0.07351152 0.9359849
0.2359475 0.05759597 0.6920947
0.2907132 0.07925052 0.8165351
0.3762649 -0.3311466 1.936918
0.2722977 0.09471832 0.8895881
0.2257856 0.1230074 0.7967852
0.2009363 -0.0530753 0.9410056
0.1670558 -0.03330509 1.05201
0.1368411 -0.07581546 0.9206937
0.02927955 0.01103571 1.034931
0.172841 0.08236714 1.023181
0.2736878 0.1576061 0.7614637
0.2369891 0.05811775 0.6940412
0.190659 -0.07424164 0.9782928
0.2765025 0.126764 0.7839513
0.2187805 -0.05201169 0.9987251
0.3237719 0.01978769 0.8680948
0.1307618 0.06902809 1.057685
0.293165 0.03514839 1.191377
0.2562277 -0.1184805 0.9299327
0.2665125 0.1245368 0.7094733
0.1283778 0.1445508 0.7921498
0.2687325 -0.06743857 0.9411085
-0.072613 0.1192359 0.8596385
-0.1674768 0.04865048 1.107876
0.1800911 0.085324 1.034586
0.3292885 0.07010895 1.002904
0.02395914 0.1016943 0.9299914
0.1308148 0.06789394 1.052679
0.2756253 0.1007883 0.9129931
0.2711841 0.07581319 1.001256
0.2601153 0.07774089 0.9833926
0.2796598 0.1309051 0.7551332
-0.1091038 0.1314597 0.8601319
0.225336 0.1608175 0.7756942
0.3161393 0.005353936 0.9972001
0.247677 -0.1188303 0.933889
-0.01798621 0.1038933 0.8688465
0.3383163 -0.03451313 1.024154
0.3401016 -0.03326957 1.030787
0.2497632 0.1122963 0.8526857
0.2564775 0.05723429 0.67762
0.1500324 -0.01447579 1.070759
0.2389248 0.1630866 0.7621532
0.3302285 0.04442374 1.090171
0.05922512 -0.1406742 0.9344189
-0.1571231 0.08442901 0.994492
0.1256496 0.08224 0.7691538
0.2491415 0.07163079 1.062051
0.2200188 0.1386764 0.7743443
0.2043112 0.01392797 1.04006
0.1965826 0.01287512 1.041362
-0.04033946 0.1300434 0.8354155
-0.04478619 0.1194464 0.8529358
0.2452192 -0.02067705 0.9691095
0.2459065 0.0451098 0.6807718
-0.1079759 0.1176294 0.8578861
-0.01862218 0.1038613 0.8667919
0.1944009 -0.07434466 0.9913046
0.2430695 0.1243237 0.7512901
0.1970844 0.01378291 1.050847
0.3199375 0.00530611 1.004743
0.3356995 0.02225012 0.8895
0.3569794 0.08498171 1.038552
0.2590301 0.1184872 0.7874995
0.2659225 -0.03972181 0.9494992
-0.1076373 0.1274833 0.8507835
-0.05456931 0.09803423 0.9466935
0.1696578 -0.08350036 0.9940153
0.1479102 0.1473888 0.790359
0.1407835 0.1396041 0.7876391
0.3208596 0.01927684 0.8611928
0.2205782 0.1567053 0.7663661
0.2512454 0.0682537 0.6912869
0.2644085 0.151991 0.7468847
0.2833322 0.1329867 0.7620782
0.3422886 0.001137297 0.8368831
0.1391229 0.1375727 0.7829327
0.2138464 0.1192848 0.7961176
0.2537939 0.1320973 0.7457491
0.1497941 0.08325282 0.7544057
0.2589783 0.1209477 0.8804643
0.3632779 0.05150696 1.086322
-0.1184854 0.1188137 0.8519436
0.259568 0.06451045 0.9770151
0.1336665 0.07112656 1.063833
-0.02520987 -0.203304 1.264408
0.325188 0.02970756 0.8421919
0.2653124 0.1010251 0.967814
0.1819058 -0.08783802 1.002968
0.2025099 -0.006898537 1.052907
0.1272863 0.148808 0.7910975
0.2790635 -0.02733154 0.9268751
0.3460713 0.1109417 0.9470071
0.2728067 0.0948724 0.8905176
0.3323648 0.01486059 0.8279856
0.1955871 0.1397556 0.7989635
0.2085757 0.1230005 0.8170538
0.3003359 0.102634 0.8370061
0.1661912 0.1713871 0.8305026
0.1973011 0.1427919 0.8055606
0.2137237 0.1150272 0.840528
-0.001202041 0.01322717 1.043944
-0.06788145 0.1099429 0.9239573
0.3163577 0.1002806 0.9314429
0.1307979 0.06890912 1.059181
0.3891706 -0.01752966 0.906059
-0.1253553 0.1021457 0.9238142
0.1707641 -0.08364428 1.001825
0.1451818 0.03944059 1.159985
0.2431706 -0.05428896 0.951533
0.315687 -0.3213802 1.866667
0.267781 0.1001881 1.002738
0.2493979 0.02138252 1.004993
0.1527617 -0.05569404 0.9398556
-0.007063335 0.09162833 0.935168
0.05271681 -0.1130072 0.9650239
0.2246165 0.09328197 1.006946
-0.1273669 0.05887837 1.071692
0.2307139 -0.07863788 0.9461337
0.2111448 -0.006020228 1.046124
0.2441464 0.05018899 0.9918967
0.1579303 -0.09233307 1.038917
0.2497187 0.09467097 0.9737867
0.3094937 0.02209694 0.9992129
0.2736377 0.09524874 0.8922372
0.3397157 0.1078451 0.9363018
0.319618 0.1015137 0.9337775
0.1653298 -0.03450345 1.041891
0.321258 0.1023814 0.9364856
0.0632636 0.04615251 1.107558
0.03053438 -0.009244093 1.029995
0.2505858 -0.0388038 0.9015878
0.04477246 0.1527107 0.7902104
0.09725219 -0.09207342 1.064336
0.1467347 0.031154 1.149137
0.2593271 -0.07688402 0.9374572
-0.1946473 0.04982365 1.064754
-0.1564488 0.08374219 0.9975016
0.2390337 0.07524987 0.9894164
0.01349378 0.1512085 0.7759616
0.01601012 0.1453432 0.7989209
-0.1001883 0.06060461 1.086866
-0.1554568 0.02406317 1.098273
0.1429581 0.08853948 1.008365
-0.1178806 0.1182763 0.8523877
0.05874808 -0.002505218 1.011927
0.06481425 0.1181243 0.8893237
-0.004237472 0.1324637 0.8324276
0.04157026 -0.09573019 1.004239
0.1067281 0.1389121 0.81692
-0.1392159 0.1271876 0.8479345
-0.04270986 0.1196942 0.8544849
0.1515243 -0.01393021 1.072227
0.1441528 0.03906568 1.156025
-0.1983477 0.08068969 1.00989
-0.2298661 0.04505433 1.083266
-0.09957664 0.03302543 1.084825
-0.1455016 0.04967747 1.093662
-0.1272449 -0.0001147594 1.09348
0.2563128 0.05951338 1.061477
-0.1656792 0.04433051 1.069075
-0.1874039 0.04406631 1.103852
-0.007610281 0.1306763 0.8391831
0.02938195 -0.006456674 1.029017
0.03032545 0.0581678 1.082072
-0.09909678 0.1267272 0.8499036
0.06826971 0.1206623 0.8955581
0.1845703 0.05045616 1.126374
0.06453469 0.1395104 0.7871732
-0.1679412 0.1102555 0.9233119
-0.1454384 0.05877674 1.037855
-0.101866 0.05932979 1.057423
0.1608491 0.07081447 0.9698579
-0.2180944 0.01857109 1.1243
0.08349562 0.1326052 0.8240786
-0.2228544 0.1087486 0.9238349
-0.02216033 0.1323955 0.8439136
-0.04552782 0.1210856 0.8541019
0.1575288 -0.09175266 1.031583
-0.1064614 0.05827091 1.085569
-0.1821953 0.112728 0.9070758
0.07876412 0.0614171 1.109439
-0.02236346 0.00825853 1.056847
-0.1010641 0.1162715 0.8570369
-0.2334652 0.1026525 0.931204
-0.05482137 0.0967975 0.9420121
0.006723976 0.130167 0.8504342
-0.2719991 0.03392355 1.14428
0.02425548 0.103376 0.9339683
-0.2572187 -0.03464867 1.145951
0.08650444 0.1381133 0.8366996
-0.1045665 0.05850952 1.041544
-0.1419381 0.05385622 1.042815
-0.1131832 0.1028079 0.9227611
-0.1936658 0.1102507 0.9115641
-0.002923871 0.1319653 0.8261993
-0.2450771 0.05144975 1.088545
-0.1436443 0.05119265 1.097896
-0.04334551 0.07099909 1.002208
-0.1620117 0.04905683 1.122731
-0.06574471 0.1037027 0.9302881
-0.2356235 0.09089784 0.981067
-0.07918959 0.09144998 0.9623446
-0.197443 0.1016597 0.9193494
-0.1081267 0.06189936 1.044954
-0.236714 0.1033399 0.9349302
0.1819644 0.04900857 1.111011
-0.1352229 0.03711136 1.11401
-0.127028 0.05309785 1.067526
-0.252684 0.04396956 1.115301
-0.280571 0.007062677 1.1964
-0.1560958 0.08292468 0.9929734
0.1812279 0.08024938 1.006146
-0.1574419 0.0848101 0.9941396
-0.03145611 0.03783914 1.079852
-0.03086495 0.03801543 1.068123
-0.08861043 0.05991059 1.073195
-0.007427109 0.09307431 0.9358092
-0.081227 0.05785078 1.067207
-0.2861935 0.02309416 1.184702
0.1588234 0.09747525 0.9981416
-0.1300315 0.06618913 1.072756
-0.2835965 0.02183783 1.196653
-0.188211 0.043462 1.109784
-0.2330583 0.03584984 1.147167
-0.2411224 0.03889414 1.124975
-0.08909255 0.05768201 1.090901
-0.2077953 0.0613326 1.004135
-0.1345659 0.03662997 1.10988
-0.212644 0.03967938 1.119473
-0.2956496 0.03417649 1.152934
-0.2955268 0.03321012 1.151638
-0.119267 0.06680197 1.024517
-0.1123785 0.05566402 1.086928
-0.2790757 -0.01607315 1.189219
-0.3058294 0.0458862 1.093857
-0.2476363 0.03386594 1.140835
-0.3172753 0.02724465 1.188741
-0.2555989 0.03290723 1.147271
-0.3053868 0.04491588 1.091201
-0.2878659 0.05032215 1.071487
-0.2942807 0.06968853 1.049947
-0.3073406 0.05015032 1.097526
0.1029904 -0.02145787 1.089191
-0.2454638 0.05117378 1.088157
-0.3035036 0.02356518 1.186224
-0.2788888 -0.01555497 1.19213
-0.157165 0.01289564 1.098735
-0.2609361 0.04540939 1.10956
0.0646362 -0.03380872 1.04813
-0.07969808 0.05210957 1.044444
-0.1959488 0.07094075 1.013109
-0.2819336 0.02824227 1.162797
-0.3364577 0.03793822 1.155126
-0.1647588 0.04305473 1.070921
-0.2990865 0.05373702 1.029528
-0.2771256 -0.007396362 1.178002
-0.1975199 0.04936934 1.090536
-0.2934122 0.03006784 1.162224
-0.1426739 0.05317556 1.04349
-0.2409606 0.0200813 1.172785
-0.3066149 0.0262016 1.064815
-0.2293769 0.03990914 1.148935
-0.1742005 0.04837102 1.086287
0.01063451 0.02070872 1.048606
0.006636691 0.07404444 1.053701
0.0409803 -0.09826507 1.004789
-0.3009157 0.03057711 1.042056
0.03952204 -0.09686953 1.001441
-0.1639009 0.04348942 1.073838
-0.3286143 0.03241809 1.196632
-0.3005688 0.02934125 1.041345
-0.2061699 0.05492774 1.0112
-0.1530099 0.05362719 1.074552
-0.3015035 0.07667665 1.0336
-0.1273955 0.04193328 1.054562
-0.1601589 -0.003075873 1.103981
-0.1784595 0.04555539 1.077281
-0.07703201 0.05883457 1.064502
-0.2612101 0.04577659 1.109427
-0.2055687 0.04160988 1.117656
-0.09648156 0.05568047 1.049891
-0.1722599 0.05272181 1.110622
-0.2148363 -0.01461393 1.12385
-0.2680421 0.04178053 1.125655
0.004042897 0.04382594 1.057619
-0.2209884 0.01148722 1.142433
-0.3115861 0.03026882 1.158818
-0.2414649 0.03846299 1.125469
-0.1327038 0.05298578 1.097884
-0.1308264 0.05328684 1.080512
-0.2290411 0.003205118 1.160802
-0.3072411 0.0473231 1.03056
-0.2332783 0.03180384 1.136666
-0.0217799 0.03564148 1.063009
-0.3179047 0.03988925 1.13433
-0.2547631 -0.06996393 1.118597
-0.3121232 0.03030968 1.160433
-0.2762919 0.04311352 1.118372
-0.3179652 0.03948503 1.134186
-0.2121739 0.0463974 1.081429
-0.306635 0.0462944 1.029583
-0.3134254 0.0409955 1.060902
-0.3449501 0.0574172 1.109988
-0.182431 0.05186754 1.081452
-0.3180963 0.08783887 0.9912022
-0.3072361 0.04673269 1.029185
-0.2903737 0.04580912 1.056837
-0.2489006 0.03799129 1.130181
-0.191702 0.01069733 1.114004
-0.3316835 0.05231404 1.015473
-0.2390032 0.008698046 1.168882
-0.2321403 0.03761832 1.134618
-0.2767395 0.01052285 1.187237
-0.3230217 0.061553 1.093931
-0.3320637 0.08824191 0.9938349
-0.2821929 0.08207884 1.015755
-0.3492346 0.0397935 1.026901
-0.3242119 0.05408255 1.030366
-0.2769242 0.08441037 1.0064
-0.1157349 0.05928911 1.086747
-0.2386118 0.00702123 1.163654
-0.2336424 0.04315317 1.112229
-0.1594736 -0.009252954 1.102278
-0.3063596 0.02352362 1.225973
-0.2337538 0.04342942 1.113978
-0.3635032 0.07964585 1.023951
-0.2769532 0.08412177 1.005155
-0.3487087 0.05149172 1.062028
-0.1033016 0.05975976 1.083954
-0.001557661 0.0133119 1.043769
-0.2813936 0.01593035 1.191052
-0.3068131 0.04653072 1.026297
-0.3806891 0.06968627 1.062501
-0.3652208 0.07409127 1.053805
-0.3708016 0.04418008 1.063896
-0.3766502 0.04069773 1.06223
-0.3721631 0.0639916 1.073535
-0.1143733 0.02232878 1.090557
-0.2546744 0.04990837 1.094404
-0.2461471 0.03612413 1.148344
-0.355438 0.05726087 1.043889
-0.4222595 0.0660744 1.071476
-0.3447995 0.05129302 1.102282
-0.1353079 0.0366898 1.113804
-0.3235857 0.03600586 1.149325
-0.2026237 0.04479146 1.103994
-0.08820469 0.05970788 1.09423
-0.3287567 0.06221884 1.094409
-0.06524856 0.01293387 1.072131
-0.2113713 0.03735852 0.9785152
-0.3083352 0.04150824 1.128557
-0.2576944 -0.05639161 1.127501
-0.3422678 0.03776451 1.035754
-0.3843802 0.06359809 1.074668
-0.388689 0.06860062 1.069364
-0.4067268 0.06837151 1.071379
-0.1499603 -0.00935513 1.099093
-0.3551225 0.05492289 1.036593
-0.3263277 0.03350687 1.18169
-0.3356875 0.02500716 1.157615
-0.184998 0.04777931 1.091706
-0.3125886 0.04854658 1.089801
-0.2918547 0.05443637 1.025903
-0.3429653 0.03853408 1.037809
-0.2911291 0.03746626 1.138935
-0.2572934 0.03917774 1.126835
-0.371775 0.0570259 1.064498
-0.2814459 0.02716844 1.197477
-0.1158646 0.05432834 1.087857
-0.1944235 0.07124868 1.012233
-0.3461274 0.03610526 1.028404
-0.3703036 0.06104985 1.064333
-0.3602549 0.0706098 1.067975
-0.3487011 0.03210345 1.022096
-0.1073986 0.05729651 1.074811
-0.1854185 0.04618465 1.086772
-0.2256188 0.04406584 1.085509
-0.2209668 0.0377727 1.122934
-0.3721387 0.04156451 1.056937
-0.1874103 0.0444232 1.104571
-0.2920324 0.04065822 1.127631
-0.276651 0.04331152 1.11939
-0.368445 0.064227 1.087912
-0.1974003 0.04208083 1.109466
-0.3082269 0.05628204 1.020122
-0.3565254 0.0623901 1.058764
-0.2307738 -0.000400835 1.145931
-0.3119725 0.02519946 1.186445
-0.2524951 0.04019293 1.17199
-0.2393345 0.009213231 1.168099
-0.2555052 0.03871549 1.143221
-0.2719017 0.03433524 1.148414
-0.2695593 0.04256732 1.109831
-0.2804347 0.03645421 1.14325
-0.3082767 0.03726944 1.136715
-0.2844526 0.04108302 1.121461
-0.2765144 0.0440703 1.120888
-0.2906504 0.04423894 1.055202
-0.3148582 0.04113003 1.188305
-0.37086 0.05943291 1.061932
-0.2742018 -0.003364582 1.162439
-0.3026953 0.03413707 1.16082
-0.4198152 0.07197044 1.071199
-0.3798355 0.071899 1.067284
-0.397433 0.06941685 1.064173
-0.3628828 0.06705308 1.091822
-0.3640977 0.06053798 1.097162
-0.2644883 0.03517807 1.14022
-0.3257165 0.04341017 1.003559
-0.2552103 0.03703483 1.139884
-0.3740056 0.03406701 1.081914
-0.2565735 -0.05733737 1.129064
-0.2604222 0.04458956 1.106501
-0.2759704 0.04110464 1.13245
-0.3276297 0.04977849 1.103748
-0.3709428 0.05995914 1.063601
-0.3228065 0.03643602 1.148511
-0.3409173 0.02767544 1.155236
-0.2791082 0.03286102 1.152298
-0.3246282 0.0298466 1.172382
-0.4485647 0.07949508 1.054413
-0.2892548 0.04930783 1.043478
-0.4061954 0.06723173 1.067657
-0.48821 -0.012325 0.9902313
-0.4890464 -0.01207198 0.9940986
-0.416104 0.07134891 1.061682
-0.3643326 0.06403344 1.058717
-0.3190906 0.03360339 1.15659
-0.3569826 0.06663595 1.139372
-0.3027249 0.02563629 1.189507
-0.3664475 0.06579243 1.060411
-0.4869627 -0.01381156 0.9811508
-0.45401 0.09274704 1.056218
-0.2811843 0.04120147 1.193025
-0.3635364 0.07310816 1.050904
-0.3671706 0.05978929 1.07393
-0.3362674 0.03174933 1.137051
-0.357716 0.07501538 1.047208
-0.4560098 0.0222545 1.041666
-0.5036228 0.02265468 0.9750364
-0.3572641 0.06506271 1.046157
-0.5022651 0.02193162 0.973718
-0.4569546 0.02473194 1.047385
-0.3424112 0.04002726 1.143886
-0.5023539 0.02114756 0.9718058
-0.3273063 0.05707759 1.032564
-0.2513395 0.01255866 1.174755
-0.3648912 0.08022028 1.031839
-0.5321707 0.03143388 0.9280089
-0.5093305 -0.02648271 0.9622395
-0.3396154 0.08384593 1.007059
-0.5308163 0.02915884 0.9233409
-0.4602526 0.003423468 1.036842
-0.3307405 0.07712904 0.9985204
-0.4486814 -0.0256267 1.01274
-0.335346 0.05620142 1.121791
-0.3680827 0.06635137 1.067274
-0.2300907 0.0007105792 1.134787
-0.4701035 -0.01924576 1.015848
-0.447622 0.07816239 1.052909
-0.3186349 0.07763124 1.015308
-0.3635289 0.0678281 1.098445
-0.4721335 -0.01766498 1.020674
-0.5368494 -0.003585001 0.9130595
-0.4900258 0.009083859 0.9873923
-0.4532699 -0.04193148 1.004243
-0.3023109 0.07588063 1.03483
-0.3256417 0.08410266 0.9952648
-0.3340801 0.08998446 1.002429
-0.412298 0.07836937 1.085333
-0.241656 0.02004723 1.17434
-0.3507135 0.0407028 1.03708
-0.5313299 0.02641118 0.9261847
-0.3643897 0.0600705 1.095454
-0.5403272 8.700445e-05 0.9242336
-0.2240161 0.02285425 1.15353
-0.4559161 -0.03554694 1.028044
-0.2284005 0.003461677 1.161194
-0.3646546 0.07375459 1.052944
-0.2535402 -0.1332343 1.233134
-0.3290939 0.08739752 0.9877014
-0.3090059 0.03442602 1.042551
-0.521034 0.02980751 0.9509004
-0.5386862 0.02969742 0.9326514
-0.5407236 0.001531588 0.9236841
-0.5406051 0.04159398 0.935549
-0.3426968 0.03846169 1.142408
-0.3232559 0.03562548 1.042874
-0.3947285 0.04545713 1.081438
-0.2487737 -0.1326564 1.257485
-0.5358813 -0.007353282 0.9187405
-0.3195518 0.06723103 1.011761
-0.3740053 0.02857227 1.072375
-0.47065 -0.02819775 1.042019
-0.3765807 0.06214161 1.059673
-0.5159087 0.03005816 0.9724247
-0.3216463 0.09148896 0.9875651
-0.3368538 0.06827904 0.9671776
-0.3982907 0.06927467 1.060799
-0.3181256 0.08638382 0.9908097
-0.3493499 0.04760351 1.054338
-0.4852989 -0.04230614 0.9873176
-0.2167195 0.01487879 1.123994
-0.5420883 0.04580672 0.9408201
-0.3257513 0.07723334 0.9904652
-0.3553191 0.06433335 1.045404
-0.3693153 0.03818725 1.054037
-0.281947 0.0807546 1.01177
-0.5328797 0.03015618 0.929265
-0.4746802 -0.01553662 1.02959
-0.2185548 0.05229454 0.9999101
-0.3298088 0.1012802 0.9598265
-0.2252935 0.07471792 1.01659
-0.3217566 0.06609268 0.9905643
-0.3354422 0.08990472 1.003432
-0.2547909 -0.01388912 1.147434
-0.3618036 0.08044933 1.017348
-0.5092761 0.02345414 0.9618896
-0.4859122 0.01785263 0.9912373
-0.321002 0.02493608 1.167563
-0.2105155 0.03354803 1.094237
-0.3635705 0.07641146 1.027951
-0.5238824 0.03471669 0.9648161
-0.2350105 0.03769674 1.113841
-0.3352654 0.06380615 1.117765
-0.3335033 0.08138771 1.172826
-0.3809374 0.04698747 1.097427
-0.3063356 0.0450619 1.073686
-0.4493388 -0.04500232 1.037906
-0.3299991 0.06142184 1.103555
-0.2243279 0.009515758 1.156323
-0.3550518 0.04493971 1.165243
-0.523017 0.01399396 0.958331
-0.3693539 0.02886371 1.084433
-0.3288077 0.08645629 0.9842975
-0.3043657 0.03095513 1.057037
-0.5424963 0.002035608 0.929672
-0.5233017 0.03040238 0.9436231
-0.4223521 0.06937942 1.070263
-0.3545299 0.008143571 0.9620766
-0.3208027 0.07552136 1.006579
-0.3796261 0.07769452 1.105164
-0.3172023 0.02741407 1.191265
-0.5286036 0.04252793 0.9907047
-0.3503496 0.04023189 1.03165
-0.375505 0.03663204 1.075643
-0.2722162 0.03020872 1.135613
-0.338943 0.02724357 1.156948
-0.4995789 -0.001298528 0.9697188
-0.3476693 0.04835605 1.09287
-0.3285417 0.04987218 1.030887
-0.3727108 0.07810207 1.020403
-0.3712121 0.07149846 1.066724
-0.3736025 0.07695132 1.090633
-0.3234877 0.08561189 1.011199
-0.3505658 0.04195173 1.045609
-0.3358472 0.06322961 0.9750274
-0.3604234 0.05724023 1.110113
-0.3457712 0.08360069 1.007074
-0.3649316 0.04811623 1.004505
-0.3527938 0.05315694 1.046945
-0.3670376 0.04815442 1.033122
-0.3044762 0.02999343 1.146878
-0.3871289 0.08778423 1.064787
-0.2915412 0.02848316 1.126316
-0.3607209 0.07125492 1.072568
-0.3428796 0.07213486 1.151803
-0.4044298 0.08395198 1.082659
-0.3258991 0.06682379 1.031026
-0.3866192 0.08072612 1.040882
-0.5163491 0.02758371 0.9581062
-0.3235941 0.05683375 1.080929
-0.3348303 0.08047581 0.9805686
-0.4090386 0.07278896 1.067499
-0.3874346 0.06778815 1.066624
-0.2765165 0.003667368 1.179331
-0.3575088 0.05541691 1.073914
-0.3126278 0.05992778 1.096006
-0.540045 0.03279614 0.9407985
-0.3440634 0.01285402 1.104582
-0.3161159 -0.001860285 0.9165534
-0.2869944 0.03080073 1.152939
-0.3261853 0.08108597 1.023534
-0.3671687 0.0748327 1.031265
-0.2335773 0.04576145 1.082066
-0.3456851 0.06919466 1.150411
-0.3198837 0.02487416 1.165641
-0.3257309 0.05512305 1.074105
-0.2751925 -0.003046023 1.159151
-0.2180185 0.01890303 1.125387
-0.3606375 0.07702616 1.06318
-0.3056273 0.09945683 0.9560322
-0.3756166 0.03316855 1.070318
-0.2271181 0.08260047 1.012087
-0.3620086 0.07514551 1.057695
-0.3150369 0.05316438 1.075194
-0.3757893 0.06880699 1.073645
-0.3222936 0.06573702 1.095773
-0.2474907 0.03370244 1.139945
-0.3536823 0.08813566 1.138113
-0.3587259 0.07437366 1.046251
-0.3120854 0.0455286 1.069953
-0.252321 0.09366231 0.9361204
-0.3669092 0.0760222 1.032703
-0.2865024 0.04967571 1.06067
-0.2907186 0.03786067 1.137905
-0.4473529 0.07802847 1.047742
-0.2224137 0.1079997 0.9256267
-0.277323 0.1096165 0.9080632
-0.2611816 0.1083205 0.9294418
-0.2328283 0.09775934 0.9423435
-0.2510197 0.1025112 0.9538907
-0.241669 0.09102988 0.9242272
-0.2056863 0.05640509 1.014012
-0.3992605 0.06821138 1.062199
-0.4020976 0.1031008 1.153189
-0.489412 -0.01077712 0.9961182
-0.323495 0.05419234 1.027277
-0.4667607 0.03301169 1.073552
-0.2712002 0.00916627 1.176718
-0.3294552 0.05952394 1.008417
-0.3299841 0.05910372 1.007934
-0.1643391 0.02365512 1.104597
-0.2713047 0.1039277 0.9298414
-0.2386291 0.02490718 1.180099
-0.1900881 0.1081448 0.9193923
-0.222971 0.1024418 0.9301118
-0.1401035 0.04161802 1.113547
-0.3553047 0.05973168 1.036403
-0.2274648 0.09757645 0.9354519
-0.1062011 0.1017242 0.9283708
-0.2713268 0.03350719 1.14415
-0.02385786 0.03438691 1.064892
-0.2388054 0.009503629 1.167788
-0.3262943 0.09213675 0.988171
0.02870069 -0.06097135 1.011598
0.06242044 0.05515565 1.079285
-0.2215128 0.1180321 0.8677995
-0.2229627 0.1173985 0.8629186
-0.1092185 0.06079056 1.040152
-0.1567495 0.08392338 0.9936532
0.1830134 0.09659859 1.138945
-0.02965142 0.1090591 0.8325169
-0.116714 0.1174437 0.8537924
-0.1568889 0.08166573 0.9905542
0.148031 -0.08640561 1.002105
0.145813 -0.08595718 0.9979052
-0.1673772 0.04999745 1.123977
-0.2247273 0.06418213 1.006459
0.08843583 0.1081811 0.9332253
-0.210628 0.05589141 1.016043
-0.04440855 0.120898 0.8555749
0.1796014 -0.07227049 0.967948
0.1563508 0.09566163 0.9752543
0.1904396 -0.07565685 0.9864296
0.01826853 0.1479685 0.8005176
0.1906933 0.09254307 1.025826
0.1410853 0.08533644 0.9937558
-0.1133636 0.06042755 1.032817
0.03680438 0.1360822 0.8230407
0.1588769 0.08729404 0.8448414
0.2467972 0.0154708 0.9810187
0.1318142 -0.09148198 0.9762556
-0.1471387 0.05463829 1.044893
-0.2524771 0.09317797 0.9293046
-0.1154842 0.1140765 0.8536077
0.3058925 0.03785553 1.124503
-0.07605734 0.002727149 1.073981
0.2463861 0.08174191 1.054528
0.2464198 0.09111006 1.000922
0.05969685 0.05378553 1.085107
0.2115673 -0.0738228 0.9759153
0.3012259 0.03663309 1.118631
-0.1135846 0.126096 0.8467796
0.2087919 0.01292541 1.042921
-0.04297147 0.07825635 0.9892807
0.2455968 0.01475556 0.9788896
0.06157553 -0.02948161 1.003178
0.1004236 0.1036954 0.9491882
0.2609268 -0.05476317 0.9318469
0.2666962 0.04828517 0.9844525
0.3347241 0.07062676 1.010664
0.3226747 -0.009957823 1.000243
-0.1823771 0.1132101 0.9063495
-0.09092648 0.01351979 1.107686
-0.02062562 0.1309032 0.8439437
0.2144614 0.1120874 0.8542247
0.2087891 0.1135811 0.8940667
0.2783202 0.02149093 0.9881364
0.2173754 0.0142874 1.048748
0.05224222 0.100441 0.8402385
-0.05428414 0.1118634 0.8292359
0.1143834 -0.09289069 1.072931
0.05489618 0.06165751 1.080854
0.2468895 0.05049047 0.9908683
0.2038547 0.118978 0.8056007
-0.125574 0.06730451 1.022773
-0.008488568 0.1487633 0.8420799
0.3169446 0.1206326 0.9557006
0.2464786 0.0509634 0.9924483
0.2847148 0.02351224 1.000323
0.2725207 0.07483717 1.001048
0.06277823 0.122567 0.8751804
-0.1028028 0.1166752 0.858126
0.2147201 0.1195515 0.7962866
0.08953003 0.1037643 0.9398456
0.3136559 0.1074143 0.9389718
0.3397061 0.108114 0.9366308
0.1265774 0.1395155 0.7870809
0.2298093 -0.07861496 0.9465654
0.4335469 0.02902462 1.174881
0.2054667 0.01322958 1.041908
0.2145579 0.1277843 0.8273553
-0.02047959 0.007270179 1.055281
0.142653 0.1589537 0.7903569
-0.1499108 0.1004954 0.9375128
0.1953324 0.1390692 0.7969732
0.1750197 0.1558961 0.7645544
0.326526 0.1005707 0.9108301
0.374759 0.05777422 1.11502
0.3532184 0.04829625 1.069146
0.06683753 0.1249079 0.8671108
0.2868224 0.09651005 0.8540357
0.01991615 0.1248074 0.8494018
0.2058139 -0.05094545 0.9511557
0.07107573 0.1180855 0.8866597
0.1391585 0.1549976 0.7831076
0.2126706 0.1188734 0.7932571
0.2890995 0.09100652 0.9493007
0.1258029 0.1463574 0.7785267
0.322811 0.06266439 0.9852575
0.2094941 0.1257643 0.8248333
0.3086516 0.009235524 0.9786424
0.1053247 -0.1002221 1.120012
0.0850699 0.1024393 0.9376547
0.01971878 0.1458921 0.7846206
0.2445424 0.0882069 0.9921548
-0.06775577 0.1212054 0.8672457
-0.0718147 0.1197918 0.8615823
0.02078127 0.1237312 0.8465037
0.3090005 0.02188379 0.9935496
0.3881775 -0.0190224 1.142145
0.2509733 0.1485587 0.7669064
0.3118351 0.002750398 0.9870602
0.1556724 0.08764007 0.771704
0.2471247 0.05044133 0.9932549
0.1406539 0.1387242 0.7716745
0.2284956 0.165059 0.7799482
0.2302628 0.1177773 0.7705315
0.3382336 0.02621158 0.8653579
0.1547581 -0.06671585 0.9389284
0.2315067 0.04713569 0.6868378
0.1238809 0.08541319 0.7579175
0.1245028 0.08581667 0.7593732
0.2603159 -0.04451549 0.8680812
0.1416208 0.1442114 0.7628827
0.4723328 0.02004203 1.307307
-0.04852924 0.05356031 1.0419
0.1887042 -0.06230082 0.942362
-0.0696798 0.1213787 0.8660189
0.242731 0.1427258 0.7601169
0.253997 -0.009241521 0.9410966
-0.02741952 0.1127899 0.8685467
0.208437 0.1058684 0.7872331
0.2026601 0.01196012 1.030913
0.336999 0.07286412 1.017286
0.19378 0.1085234 0.9028757
0.343701 0.004955187 1.051773
0.3266526 -0.03619782 1.003024
0.267581 0.1253075 0.9066582
0.2558592 0.05393643 1.020083
0.1469176 0.08928363 0.9795259
0.1400121 0.1587023 0.7892666
0.1660181 -0.08400205 0.9754397
0.2536543 0.1319366 0.7696667
0.2616434 0.1036113 0.9739197
0.2283481 0.1368263 0.7750382
0.2617039 0.1178628 0.7887689
0.3485316 0.08074906 1.026631
-0.1015994 0.03124239 1.08467
0.4013827 0.02833598 1.157114
-0.08063201 0.121877 0.8587152
0.0646253 -0.03621569 1.019669
0.142898 0.1586829 0.7977279
0.1587953 0.08973459 0.7762176
-0.1379813 0.1256684 0.8467934
0.06088443 0.1196688 0.8680252
0.2371198 0.069907 1.07304
0.01351337 0.15385 0.7786673
0.1643944 0.1059172 1.007545
0.0239919 0.1017731 0.9304112
0.05870648 -0.002408776 1.007232
0.1641036 0.102507 0.9856043
0.1580561 -0.09235027 1.039515
0.2366394 -0.03673395 0.991738
0.1413438 0.1403226 0.7890096
0.1464389 0.02780704 1.133202
0.1016101 0.1002229 0.9521704
0.2646886 -0.006606086 0.9672832
0.2562036 0.05849285 1.060302
0.293614 0.02903939 1.025844
0.1058348 0.06669182 1.087624
0.08571342 0.1041551 0.923359
-0.2002082 0.08118316 1.016894
0.1243646 0.08101938 0.7659827
-0.07167757 0.1066018 0.9126501
0.00712162 0.07202596 1.044338
0.1814006 0.05490877 1.114474
-0.04657455 0.1084384 0.917882
0.1626557 0.09306214 0.9077118
0.01971004 0.1258788 0.8550168
0.1032357 0.1027256 0.9460626
0.12617 0.04749406 1.156934
0.04451104 -0.1001233 1.10432
0.09459077 -0.09211664 1.075353
0.09104624 0.09747285 0.9612426
0.1502728 0.08873004 0.9303685
0.1527272 -0.01320053 1.074186
0.1792011 0.04462936 1.116726
0.177833 0.04395172 1.113673
-0.04314391 0.1133294 0.8748374
-0.07489415 0.104484 0.9254703
-0.2034952 0.1046736 0.9260617
0.1263249 0.08775684 0.751915
0.1165984 -0.09408376 0.9344563
0.1620512 -0.09035182 0.9340376
0.2489082 0.05109516 0.9931285
-0.09994908 0.1173184 0.8590485
-0.0982282 0.1032824 0.9227237
0.08805447 0.1091335 0.9498109
0.2475389 -0.03006363 1.000735
0.07377404 -0.03265112 1.120719
-0.2035807 0.1046696 0.9265257
-0.1472647 0.099811 0.9393444
0.1813297 0.1109026 0.9494474
0.008391824 0.07776767 1.065973
0.1742203 0.1026129 0.9319114
0.03479692 0.03290875 1.067779
-0.05142784 0.1105726 0.8347911
0.1830911 0.08779274 1.039655
-0.04564258 0.05242717 1.0422
0.068771 0.1154812 0.8823146
0.2119703 -0.003356192 1.088274
0.2246246 0.177262 1.18878
0.2488559 0.05717998 1.116628
-0.06451374 0.1023004 0.9345222
-0.144966 0.1039612 0.9164194
-0.0295789 0.09935778 0.904585
0.07189855 0.102016 0.9347122
0.1346465 0.0803808 1.014376
0.1029406 -0.02180158 1.088528
-0.03079508 0.09821407 0.9021114
0.09939735 0.08129025 1.019915
0.1259713 0.08167361 0.7682069
0.04408467 -0.1006763 1.018982
-0.1030369 0.1181179 0.8523645
-0.1800416 0.04577624 1.100514
0.06369742 0.1018596 0.9490895
0.1818404 0.1070988 0.9314681
0.07189672 0.1036704 0.9386581
-0.07521984 0.1047357 0.9151629
0.0635791 -0.01892361 1.032629
0.1502915 -0.0859407 0.9914516
0.2055399 -0.00767216 1.033506
-0.2276148 0.00141251 1.141474
0.133299 0.04181901 1.156099
0.137714 0.08949278 1.001625
-0.095341 0.0007022876 1.082433
0.1544169 -0.08043914 0.9907545
-0.04291678 0.1184024 0.8512156
0.1855392 -0.08003773 0.9807279
0.0416589 -0.09690553 1.044824
-0.1149887 0.1136334 0.8528218
-0.09449511 0.05504036 1.047754
-0.1533273 0.05105672 1.053573
-0.1197435 0.1026065 0.9234293
-0.04010807 0.1135172 0.8745009
0.09844465 0.07953795 1.015765
0.06401541 0.1009117 0.948025
0.1179659 0.0890922 1.014103
0.057573 0.1227394 0.8924923
0.056292 -0.05646042 0.9863548
0.08588219 0.09275158 0.9545425
0.1981914 -0.008531288 1.035249
-0.08094675 0.05313806 1.045157
-0.007766207 0.1304724 0.8394248
0.1420437 -0.07420414 0.9508338
0.02155432 0.1178855 0.9092358
0.1729293 0.1062498 0.9544826
0.02745238 0.04899986 1.0733
0.1302652 0.06992871 1.057452
0.08871557 0.107579 0.9272103
0.08869994 0.1093951 0.9324312
0.1442778 0.0951733 1.033856
-0.1245843 0.101009 0.9268979
-0.08123297 0.1041272 0.9263895
-0.3033079 0.02480218 1.187421
-0.04464693 0.09667602 0.9468045
0.1753509 -0.08427778 1.019212
0.03478497 0.02681175 1.048869
0.08831154 0.09599353 0.9642133
0.1357188 0.0814139 1.018802
0.03798148 0.100518 0.9039444
0.1389677 0.08606966 1.035313
0.02320293 0.1029428 0.9349579
0.112927 0.06642446 1.079784
0.1396541 -0.07265805 0.9419521
-0.2864197 0.04861797 1.02908
-0.113932 0.06107661 1.033181
0.08576089 0.09506053 0.9216743
0.09705738 0.1039037 0.9674541
0.1310434 0.06929843 1.060746
0.1203778 -0.09551352 1.036705
0.036154 0.02390564 1.036575
0.181614 0.0572017 1.11893
0.1068794 0.1143029 0.969206
0.01095601 0.1200669 0.8992821
0.1473853 -0.0753437 0.9346381
-0.02078123 0.1115296 0.8823844
0.1130592 -0.09358569 1.099002
0.1552489 -0.09263434 1.02943
0.06067852 -0.02532599 1.019002
0.1307491 -0.0934369 1.029508
-0.1136615 0.1260051 0.8483397
-0.0490918 0.03797008 1.071982
0.1863034 0.04782433 1.118479
-0.07264698 0.1191532 0.8590428
0.1076275 0.1222049 0.9865149
0.1422284 0.09403239 1.010268
0.02069597 0.1218509 0.9082429
0.0644384 -0.0889696 1.20434
-0.3160614 0.03027136 1.099457
-0.2986932 0.06305662 1.064082
-0.1250062 0.1007376 0.9289071
-0.1294607 0.06386821 1.071623
0.05905705 -0.002248079 1.009978
-0.1454188 0.07996038 1.00117
0.06530306 -0.02313697 1.123604
-0.002997065 0.1116282 0.9143307
0.05805881 -0.0005114761 1.022924
-0.01249473 0.08424339 0.8817604
0.1068202 0.001124435 1.100192
0.0754537 -0.09375489 1.05898
-0.296168 0.07305194 1.053639
0.01112454 0.1211181 0.9028407
-0.04337855 0.06354211 1.015993
-0.1447007 0.05214652 1.113001
-0.137808 0.04361619 1.083037
-0.1863879 0.1113703 0.9303253
-0.2179367 0.1137708 0.9242918
-0.3058501 0.0484216 1.087018
-0.2193508 0.01945563 1.126779
-0.3103822 0.04387816 1.096274
0.09061722 0.1103057 0.9529914
0.1000652 -0.0002539252 1.100332
0.05376278 -0.1334371 1.010576
-0.06582317 0.1073172 0.951072
0.01219019 0.07659003 1.061321
-0.2184324 0.01898323 1.125706
-0.08928183 0.1032241 0.9217401
0.0426747 -0.1138292 1.042849
-0.3419206 0.03773804 1.139622
-0.2410631 0.09511429 0.9432712
0.04413892 -0.1146026 1.021821
-0.2887333 0.04977225 1.046661
-0.2911771 0.02164018 1.190854
0.05479138 -0.05539704 0.9925454
0.02494531 -0.1227185 0.9868603
0.07800769 0.04177001 1.111074
-0.002319906 0.1128699 0.9186901
0.07844403 0.1009261 0.9591835
-0.06403979 0.01529726 1.134025
0.143292 0.1019701 1.044106
-0.2043551 0.1133173 0.9140076
-0.0655534 0.1028563 0.9223525
0.03277628 -0.1222142 0.9870991
-0.2624229 0.1002004 0.9398656
0.06082963 -0.002880078 1.004303
-0.105323 0.05856913 1.041656
0.08654232 0.1177792 0.9498254
-0.01945786 0.03610657 1.064232
0.03073904 0.056367 1.074367
-0.2985674 -0.02753582 1.206785
-0.2925581 -0.03082217 1.193661
-0.04276071 0.0826012 0.9783234
0.03506887 -0.04291701 1.010796
-0.1332539 0.03685115 1.111883
0.09266581 -0.08797663 1.190805
0.06432834 -0.09215853 1.080217
-0.1565595 0.08353626 0.9935498
-0.2489095 0.1069509 0.9215962
-0.2235211 0.1206567 0.8717242
-0.1308088 0.05459009 1.082374
-0.327489 0.02992089 1.221454
-0.05897196 0.01246126 1.1147
-0.07902676 0.09128903 0.9630008
-0.1985087 0.06380545 1.01079
-0.07485151 0.1045142 0.925509
-0.04459854 0.08236058 0.9095526
0.06451435 0.05793535 1.089853
0.1055312 -1.79425e-05 1.096916
-0.08874761 0.05998104 1.073511
-0.164114 0.0435322 1.073187
0.02966389 -0.006420051 1.026855
-0.04471801 0.05262791 1.04308
-0.07650493 0.01902859 1.077011
-0.1597602 0.01908588 1.105178
0.06386326 0.0477115 1.116705
-0.3438118 0.06406193 1.005506
-0.3255141 0.09185676 0.9900021
-0.2466687 -0.08883445 1.089606
-0.3290207 0.08837688 0.9944729
-0.3074829 0.04671523 1.028106
-0.3279105 0.04861671 1.00474
-0.01980491 0.02666765 1.065825
-0.1808866 -0.01028555 1.115715
-0.2639218 0.1017698 0.9430227
-0.1575122 0.105227 0.9385208
-0.1691538 0.04744603 1.10294
-0.08852868 0.05858138 1.093322
-0.2957401 0.06878592 1.056204
-0.271791 0.1055531 0.9312225
-0.31845 0.03944873 1.133852
-0.09515866 0.008473563 1.078238
-0.2465929 0.1106328 0.9643984
-0.3120387 0.04454661 1.098621
-0.2339334 0.1018584 0.9465922
-0.1238416 0.06373474 1.068047
-0.2603216 0.1076341 0.9288194
-0.3097847 0.02511755 1.067724
-0.2892671 0.04634833 1.054529
-0.06132869 0.0813591 0.9828277
-0.3315611 0.04771205 1.097223
-0.07211723 0.05998998 1.062832
-0.04341141 0.01519866 1.08143
-0.08405119 0.05668249 1.060602
-0.1121063 0.0735844 1.008671
-0.04291065 0.07597714 0.9921753
-0.04276776 0.01072483 1.063507
-0.1232711 0.06001023 1.064298
-0.1922564 -0.0004828279 1.11387
-0.06084286 0.08174088 0.9831498
-0.3050264 0.1031413 0.9428409
-0.02045843 0.007396945 1.054297
-0.1412102 0.05207266 1.094484
-0.02408125 0.01037991 1.077431
0.003556854 0.04458998 1.056172
-0.2252631 0.0435401 1.084484
-0.2720279 0.03414976 1.175981
-0.2876195 0.04856781 1.073089
-0.2697138 0.1063915 0.9393953
-0.1525646 0.05297619 1.071938
-0.3096827 0.04771391 1.085111
-0.1328529 0.07396115 1.014004
-0.1714416 0.03660846 1.079462
-0.3504494 0.06612554 1.01332
-0.336784 0.08575115 1.001498
-0.3270322 0.05475373 1.111221
-0.2325407 0.03685526 1.133861
-0.173145 0.04626127 1.094857
-0.2104954 0.04904674 0.9988962
-0.3317047 0.03102006 1.16636
-0.300221 0.04636516 1.084363
-0.2458136 0.04836697 1.194192
-0.01887563 0.03860343 1.067292
-0.3113652 0.0282196 1.140173
-0.07614469 0.003112115 1.074381
-0.3023363 0.02438804 1.186556
-0.197722 0.04879455 1.089341
-0.3569222 0.04138255 1.151256
-0.3305802 0.07736263 1.000163
-0.1354821 0.03649216 1.112123
-0.04883405 0.02269882 1.071885
-0.2024831 0.04470894 1.102368
-0.07509305 0.06130502 1.063308
-0.1184969 0.05438969 1.057943
-0.04765173 0.008205775 1.064071
-0.1427114 0.05348031 1.044819
-0.07737518 0.03653415 1.075131
-0.2029199 0.04557779 1.104921
-0.1119561 0.05713139 1.089114
-0.1595576 0.01682539 1.104051
-0.04265772 0.06814571 1.010973
-0.2209564 0.03791858 1.124358
-0.06998974 0.06643979 1.014389
-0.284876 0.02181833 1.200679
-0.1465361 0.0497952 1.096537
-0.2180344 0.0177859 1.127162
-0.1050436 0.05823675 1.083547
-0.1278516 -0.0003204508 1.093326
-0.1498594 0.05178874 1.051206
-0.2186313 0.05219677 0.9995152
-0.07260121 0.0735279 1.000514
-0.2520966 0.04316929 1.113508
-0.114426 0.06095736 1.032341
-0.2714685 0.03418593 1.145716
-0.1692738 0.04871153 1.126823
-0.2051454 0.04127216 1.115675
-0.2191446 0.01206855 1.131117
-0.1147876 0.0655231 1.069993
-0.2881894 0.0168286 1.189693
-0.2434963 0.01173789 1.157545
-0.2766866 0.08248363 1.002917
-0.07619668 0.01964124 1.076417
-0.1050477 0.05829952 1.08893
-0.2412174 0.02191631 1.17968
0.01153612 0.04425703 1.052881
-0.1428543 0.05308505 1.043703
-0.1110022 0.0609796 1.077203
-0.09417531 0.05662843 1.049511
-0.1444247 0.0926739 0.9808874
0.02550854 0.05631597 1.081524
-0.3047521 0.02406964 1.175007
-0.3569773 0.03267261 1.119649
-0.3083526 0.04188193 1.130069
-0.05343117 0.03719343 1.066295
-0.3132945 0.03860357 1.04208
-0.1867526 0.046839 1.110915
-0.1961815 0.0486543 1.126584
-0.1273459 0.05936004 1.076151
0.02379726 0.05379992 1.079988
-0.04341824 0.06505615 1.013846
-0.228158 0.07982673 1.007486
-0.2047834 0.05782616 1.016678
-0.3294192 0.03185126 1.172911
-0.04046381 0.05842549 1.043856
-0.03773923 0.0906255 0.9857274
-0.07489625 0.02125975 1.078492
-0.314532 0.04491424 1.083627
-0.3235067 0.03112438 1.184979
-0.2278524 0.05312019 1.005447
-0.3334431 0.08110769 0.9917175
-0.3427094 0.04258435 1.146921
-0.2325984 0.04709427 1.084731
-0.2547289 0.05081187 1.096986
-0.157172 0.0852835 0.9954666
-0.02050026 0.006902417 1.054521
-0.2195691 0.01254545 1.133271
-0.2198985 0.01239352 1.133523
-0.2144053 -0.01462459 1.124495
-0.3372238 0.03978378 1.03755
-0.07670228 0.03476469 1.074863
0.006481336 0.08000044 1.062286
-0.2580591 -0.03225781 1.161943
-0.1985982 0.0595106 1.011794
-0.001690642 0.07165018 1.044986
-0.1570676 0.08403458 0.9950647
-0.3295166 0.04885904 1.010236
-0.2022344 0.08689757 1.010682
-0.2417524 0.04132066 1.116362
-0.2932695 0.02951079 1.16021
-0.3631328 0.03637455 1.117946
-0.1813458 0.04665061 1.069128
-0.08414255 0.05569749 1.068704
-0.2342867 0.04597811 1.080764
-0.3267442 0.0378326 1.074823
-0.2457173 0.05953645 1.067901
-0.2951323 0.03318155 1.149771
-0.1966363 0.06390252 1.007105
0.03009555 -0.006978363 1.029481
-0.02183733 0.03688101 1.068847
0.04095895 0.03889869 1.053309
0.01763486 0.02695987 1.062731
-0.2889679 0.04281443 1.056115
-0.1491443 0.05002242 1.097052
-0.2799304 -0.01536664 1.120224
-0.3071708 0.02192413 1.217114
-0.1418461 0.05429949 1.04386
-0.3438009 0.0478198 1.089722
0.02289201 0.05107306 1.065891
-0.1065429 0.05327952 1.057707
-0.1256305 0.06001876 1.075677
-0.1956517 0.07240109 1.00814
0.1009008 0.02305941 1.070942
0.0350637 0.07603625 1.085169
-0.2564198 -0.1800798 1.134344
-0.2586 -0.1827388 1.080575
-0.03614728 -0.09090828 0.9018863
0.02775564 -0.06093291 1.01219
-0.2525508 -0.1782839 1.223467
-0.03556481 0.0305884 1.070568
0.02804172 0.03172325 1.027704
-0.2594069 -0.1825842 1.065876
-0.3065909 0.05615132 1.021808
-0.1975926 0.06726904 1.012657
-0.2546272 -0.03838114 1.197787
-0.3328955 0.03525608 1.200056
-0.3427595 0.05372965 1.070433
-0.3769585 0.04398039 1.07045
-0.2582667 -0.1815501 1.101179
-0.2500096 -0.1860276 1.156587
-0.03564515 -0.1692477 1.367335
-0.01297652 -0.1846952 1.435094
-0.0007899872 -0.1852822 1.480488
-0.05227711 -0.1689363 1.320016
-0.3391188 0.04018579 1.037847
-0.2806306 -0.01286094 1.152697
-0.02670603 -0.1688923 1.483423
-0.1903926 0.04261954 1.108906
-0.2802703 0.03708323 1.146067
-0.2577946 -0.1431167 1.096767
-0.3660709 0.04570294 1.045586
-0.3783514 0.04575071 1.073922
-0.2995367 0.05293252 1.026942
0.0415936 -0.1800062 1.626541
-0.04336604 0.06130151 1.022167
-0.2555847 0.0379178 1.141968
-0.04528463 0.05544362 1.021589
-0.1190331 0.06655465 1.025611
-0.05359745 0.02346072 0.9469429
-0.2545247 -0.08085191 1.141065
-0.1847225 0.0516155 1.07645
-0.04412473 -0.1845261 1.132576
0.06597351 -0.1920558 1.13295
-0.3366269 -0.001948918 0.9432473
-0.02924587 -0.1832519 1.174924
-0.3518867 0.05409861 1.105657
-0.3288001 0.05823331 1.094282
-0.3458394 0.03424677 1.026316
0.009434949 -0.1611001 1.032282
-0.3564566 0.02264746 1.090371
-0.05566112 -0.1853843 1.094739
-0.2394109 0.01408317 1.142272
0.01493598 -0.162364 1.039829
-0.1113486 0.07390364 1.009375
-0.3452467 0.05613898 1.106558
0.02773172 0.05702828 1.07485
-0.2861248 0.02627468 1.187193
-0.3343747 0.03191587 1.162506
-0.2488394 0.06299332 1.061928
-0.2166924 0.03000792 1.095615
-0.07201555 0.02257553 1.081868
-0.3753376 0.03662949 1.075649
0.02702366 -0.2007919 1.06925
0.03713135 -0.1992267 1.091887
-0.1999799 0.05743441 1.009538
0.01698842 -0.2000356 1.053448
-0.280481 0.01463021 1.230689
-0.2350174 0.02804846 1.17951
-0.2716421 0.03338499 1.146241
0.03039161 -0.2005515 1.078003
-0.2176588 0.01917437 1.150109
0.06428219 -0.1044592 1.03344
-0.04085343 -0.1839339 1.142137
0.1021536 -0.08605628 1.096979
-0.1479259 -0.006629982 1.102014
-0.09370995 0.06174175 1.079241
-0.01618067 0.02585427 1.066466
-0.1034984 0.06128329 1.073289
-0.3199131 0.04531936 1.050722
-0.2330898 0.007523377 1.173359
-0.136873 0.0457244 1.125248
